ply
format ascii 1.0           { ascii/binary, format version number }
comment made by Greg Turk  { comments keyword specified, like all lines }
comment this file is a cube
element vertex 1282
property float x
property float y
property float z
property uchar red
property uchar green
property uchar blue
end_header
-1.90701 0.694118 7.56968 36 30 45 
-2.00769 0.710787 7.68424 22 39 65 
-1.90385 0.705628 7.59645 21 22 39 
-2.00756 0.720344 7.64753 150 149 203 
-1.92596 0.71568 7.58619 165 184 252 
0.783485 0.403766 4.69648 138 117 133 
0.887818 0.390441 4.57237 146 122 133 
-1.0499 0.584723 6.21432 150 96 113 
-1.99624 0.74718 7.67342 42 55 113 
-1.92872 0.737854 7.58685 21 44 106 
-1.78138 0.755681 7.44718 63 46 65 
-1.97729 0.779616 7.6266 21 25 49 
0.643336 0.463742 4.83229 109 101 122 
-1.96695 0.791812 7.61688 162 176 237 
-1.91359 0.799949 7.56977 56 55 95 
-1.9298 0.814622 7.58287 14 26 84 
0.580224 0.51917 4.89077 89 67 88 
-2.00262 0.84309 7.64205 157 160 223 
-1.92889 0.834302 7.58206 158 180 248 
-2.0098 0.849516 7.67897 17 22 48 
-2.02546 0.856062 7.66109 52 56 77 
-0.0249825 0.551958 4.99312 70 38 46 
-1.98139 0.869724 7.62395 152 156 206 
-1.93812 0.865781 7.58738 157 179 231 
-1.93462 0.874193 7.58355 26 30 57 
-0.829579 0.655733 5.7324 90 76 107 
-1.9245 0.881979 7.57394 16 21 38 
-0.839043 0.667482 5.75633 130 133 172 
-1.4362 0.747026 6.39022 60 29 41 
-0.888829 0.683178 5.82489 97 51 67 
-0.795377 0.668784 5.69118 127 145 191 
-0.211528 0.600214 5.06294 98 52 66 
0.0992437 0.563832 4.73764 81 39 49 
-1.37273 0.757785 6.32474 72 30 39 
-1.32532 0.749591 6.26274 90 48 67 
-1.04977 0.718757 5.99075 111 62 77 
-1.60319 0.788042 6.55255 121 81 91 
-1.37052 0.762867 6.31072 114 68 74 
-0.527843 0.655215 5.41151 117 71 84 
-1.70362 0.810218 6.66574 67 44 56 
-1.60812 0.796698 6.55876 99 61 71 
-0.304938 0.632795 5.19335 87 45 54 
-0.268845 0.625281 5.13027 119 69 85 
-1.36458 0.769821 6.30525 100 45 54 
-1.3338 0.767057 6.27685 104 57 71 
-0.532982 0.662679 5.41557 138 93 108 
-0.0530729 0.600924 4.89858 66 32 41 
-0.00101545 0.595116 4.84642 105 56 71 
-1.00391 0.727684 5.91549 92 51 68 
-0.310092 0.637486 5.17638 108 71 82 
-0.263139 0.634429 5.14603 141 94 109 
-1.87628 0.934316 7.52926 111 99 112 
-0.558652 0.676334 5.45648 98 56 70 
-0.538322 0.671842 5.41926 115 68 84 
-0.0490037 0.605951 4.88792 108 70 81 
-0.00639443 0.602984 4.85442 131 85 96 
-0.734807 0.699139 5.62994 90 57 75 
-0.464797 0.666441 5.35354 82 49 68 
-0.362164 0.655272 5.25295 100 57 68 
-0.277658 0.640281 5.13957 122 70 86 
-0.305221 0.647274 5.17038 60 32 41 
-0.632451 0.693217 5.51581 128 96 111 
-0.0116538 0.611637 4.8532 82 40 53 
0.054806 0.605205 4.78311 67 39 51 
-2.17452 0.990337 7.84776 135 117 142 
-0.625696 0.741582 5.50745 116 69 89 
-0.363425 0.711565 5.22914 117 65 77 
-0.358321 0.720985 5.245 141 90 105 
-0.0907568 0.683167 4.94833 99 48 63 
-0.890888 0.795102 5.81451 92 45 61 
-0.427573 0.732267 5.31401 135 86 99 
-0.633599 0.7597 5.51259 108 62 82 
-0.447056 0.738318 5.31151 111 63 74 
-0.394708 0.732552 5.26013 92 46 56 
-0.098504 0.698277 4.95831 106 50 63 
-0.203231 0.714603 5.07001 91 45 58 
-0.315017 0.738608 5.17582 99 69 84 
-0.049106 0.708553 4.88695 93 62 76 
-1.71875 1.04585 7.36649 50 42 57 
-1.75054 1.05368 7.36823 45 39 53 
-0.630099 0.799494 5.50688 90 49 62 
-0.381626 0.766008 5.22326 72 39 50 
0.669558 0.77684 4.76532 121 114 137 
0.863174 0.757607 4.58912 78 58 76 
0.701556 0.790685 4.73537 134 127 156 
0.682106 0.800061 4.7639 113 103 130 
0.930096 0.773603 4.52941 130 125 148 
-2.06722 1.19836 7.70145 125 119 144 
-1.76178 1.20082 7.37239 68 50 58 
-1.69753 1.21133 7.32325 41 28 37 
-0.0295335 0.924601 4.81909 86 40 50 
-0.953796 0.901859 4.54915 120 68 83 
0.621749 1.11141 4.80895 103 95 109 
-1.39632 0.963377 4.78462 105 51 68 
1.03783 1.0699 4.34436 48 37 45 
0.758945 1.11631 4.63087 115 91 111 
0.787352 1.11527 4.59611 64 49 72 
0.65312 1.158 4.77515 111 103 134 
-1.39229 1.02553 4.77816 78 46 62 
-0.056503 1.15187 4.82152 65 44 49 
-1.23008 1.00963 4.60242 100 51 60 
-1.85455 1.11784 5.26648 86 48 62 
-1.39849 1.0652 4.7687 77 52 66 
-1.3746 1.05982 4.74012 106 66 86 
-1.22908 1.04727 4.59946 97 52 70 
0.803012 1.22151 4.4448 126 110 124 
-1.2219 1.0612 4.58 114 62 74 
1.05355 1.19571 4.15787 68 46 58 
1.18185 1.17344 4.02247 43 33 48 
1.08014 1.20495 4.15759 18 20 34 
1.16872 1.18094 4.0325 39 32 70 
-1.91151 1.20179 5.31305 91 49 67 
1.04475 1.21563 4.16216 77 55 70 
-1.71969 1.17768 5.10869 93 48 59 
-1.3902 1.1215 4.75942 102 52 65 
1.07913 1.22687 4.1662 17 19 41 
1.17436 1.20482 4.02642 87 81 160 
1.17654 1.20308 4.02072 25 22 80 
1.16359 1.20791 4.01699 129 145 214 
-0.948434 1.12488 4.53592 95 44 61 
-1.21817 1.12533 4.57312 76 42 58 
1.1329 1.25764 4.07406 158 183 246 
1.11249 1.26309 4.07313 70 52 131 
1.05575 1.3052 4.16445 72 51 65 
1.17006 1.28337 4.00699 155 172 238 
1.18038 1.28253 3.99851 49 22 76 
1.15263 1.30058 4.03841 16 26 67 
1.16835 1.3026 4.02546 155 173 241 
1.09862 1.32719 4.1211 143 167 219 
-1.81313 1.42016 5.09446 125 140 160 
-1.637 1.3714 4.73294 51 31 105 
-1.5777 1.3738 4.69363 58 73 127 
-1.65226 1.38565 4.74149 194 210 255 
0.251986 -1.48554 5.49996 87 68 88 
0.146831 -1.46763 5.60192 94 74 99 
0.207534 -1.4058 5.5189 104 75 94 
0.171229 -1.40268 5.56718 98 67 91 
0.197061 -1.35868 5.5297 81 60 80 
1.01205 -1.37741 4.67328 45 35 57 
1.05986 -1.36765 4.60471 54 42 65 
0.805145 -1.35136 4.86655 47 41 59 
0.11739 -1.28481 5.5923 135 118 139 
0.1704 -1.28065 5.56046 66 52 72 
-1.26676 -1.16788 7.073 131 103 118 
0.205261 -1.19979 5.50874 115 82 99 
-1.26175 -1.12856 7.09233 67 45 57 
-0.770634 -1.03942 5.96742 85 47 57 
-1.37403 -1.10579 7.18839 79 58 68 
0.803026 -1.10363 4.85835 124 107 122 
-2.16447 -0.989881 8.05021 131 107 123 
0.80742 -1.08121 4.85424 60 48 65 
-0.54032 -0.887147 5.64655 145 89 102 
-0.617756 -0.88154 5.73257 50 26 36 
-0.560407 -0.88287 5.66293 152 101 116 
-0.951056 -0.861632 6.10288 124 81 92 
-0.59329 -0.873419 5.7131 83 42 50 
-0.536582 -0.87023 5.64236 138 87 100 
-0.62429 -0.863454 5.7364 86 47 53 
-0.962549 -0.84684 6.10772 61 27 37 
-0.549772 -0.860202 5.65267 58 30 38 
-0.188581 -0.877248 5.32418 67 29 36 
-1.09704 -0.833015 6.26874 77 39 48 
0.813653 -0.971384 4.81724 123 102 115 
-0.582088 -0.835579 5.70185 77 39 54 
0.580988 -0.954074 5.07252 130 107 122 
0.876594 -0.964617 4.74731 54 48 56 
-0.594761 -0.823726 5.73542 100 67 83 
0.780166 -0.953022 4.85433 71 59 78 
0.810926 -0.948776 4.82372 69 56 73 
-0.961042 -0.796682 6.10379 119 72 80 
-2.05791 -0.807249 7.89012 69 56 72 
0.338588 -0.912601 5.33607 119 92 117 
0.539412 -0.920295 5.10908 70 43 54 
0.353568 -0.899149 5.31164 119 83 98 
-0.550074 -0.780415 5.67257 74 35 46 
0.971102 -0.819099 4.60265 132 113 135 
0.961516 -0.787443 4.65271 137 123 141 
-2.03577 -0.619241 7.90193 56 49 65 
0.71823 -0.76175 4.92447 98 69 79 
0.815856 -0.764204 4.82614 126 110 124 
0.662715 -0.74035 4.97809 97 93 109 
-0.264042 -0.647044 5.6788 80 34 41 
0.209477 -0.68665 5.43475 113 90 108 
0.216939 -0.684971 5.46167 71 53 76 
0.249519 -0.687077 5.41685 90 60 84 
0.340393 -0.668962 5.27663 83 67 90 
-0.700469 -0.549368 6.00938 78 39 45 
-1.44655 -0.510716 7.20172 80 68 84 
-0.673831 -0.516773 5.9466 115 66 74 
-0.77712 -0.507027 6.05255 73 38 45 
-0.841233 -0.49739 6.12041 75 38 46 
-0.769219 -0.503472 6.04769 59 27 32 
-1.35547 -0.479901 7.09587 88 75 98 
-0.623242 -0.499339 5.90659 119 68 75 
-0.746228 -0.487302 6.05697 117 64 73 
1.04555 -0.595758 4.52374 65 52 69 
0.308605 -0.517291 5.31814 114 81 92 
0.442333 -0.513296 5.17914 132 114 137 
-0.838678 -0.397664 6.11214 78 37 49 
-1.67881 -0.353882 7.43564 82 67 86 
0.30481 -0.468635 5.32212 148 126 147 
-1.73181 -0.297151 7.51637 126 108 130 
-1.09528 -0.317473 6.52741 73 38 44 
-0.159675 -0.374259 5.52826 80 42 50 
0.444606 -0.373291 5.16755 131 125 147 
0.562127 -0.368013 5.02982 123 108 129 
-0.665839 -0.252578 5.91882 59 36 36 
0.79812 -0.371718 4.76724 68 56 73 
-1.62385 -0.105925 7.37361 69 61 88 
-0.748847 -0.160329 6.01239 156 142 126 
-0.783218 -0.130285 6.03038 134 100 94 
-0.981459 -0.104329 6.19819 74 38 45 
0.612009 -0.217545 4.96088 83 60 65 
-0.880484 -0.0763389 6.1254 75 35 45 
0.653655 -0.19886 4.91493 126 109 134 
-2.17187 0.0464224 7.92607 76 60 81 
-0.637498 -0.0820404 5.92508 189 176 144 
-0.151717 -0.122354 5.5037 61 29 39 
-0.678749 -0.0760298 5.93552 137 114 86 
-2.13784 0.0538469 7.90261 68 64 85 
-0.661662 -0.0675271 5.93596 115 82 59 
-1.85294 0.0400475 7.60392 110 93 114 
-0.612614 -0.0679686 5.91178 208 194 168 
-2.13307 0.0694604 7.89859 111 106 133 
-1.07743 -0.016568 6.52227 69 36 44 
-0.622906 -0.0216625 5.8745 218 211 182 
0.653366 -0.105556 4.91145 99 77 97 
-0.177752 -0.0304352 5.52532 79 36 45 
-0.136425 -0.0338842 5.51203 76 36 50 
-0.0408271 -0.0436515 5.4055 60 30 38 
-0.149634 -0.019871 5.49516 75 45 57 
-1.17778 0.0852697 6.61187 85 42 48 
-0.706185 0.0459408 5.85367 101 82 76 
-0.521914 0.0443445 5.72173 103 56 66 
1.05129 -0.0852018 4.47314 128 109 129 
-1.64016 0.17409 7.36711 68 51 69 
1.0408 -0.0732324 4.49428 144 121 134 
1.03034 -0.0747964 4.47353 70 47 66 
0.744446 -0.0340881 4.78097 85 67 83 
-0.272341 0.07862 5.58873 71 29 39 
-0.615701 0.119224 5.90936 110 92 68 
0.872064 -0.00691142 4.63801 71 50 67 
0.894808 -0.00922005 4.63362 52 38 56 
-0.471772 0.112122 5.6771 90 39 46 
-0.6678 0.145003 5.91743 89 61 47 
-0.637543 0.152352 5.92164 180 167 133 
-0.43217 0.129201 5.61705 80 45 57 
-1.14246 0.243893 6.47806 78 32 42 
-0.430767 0.190333 5.61201 72 32 43 
-0.829566 0.2339 5.8499 174 165 154 
-0.0137475 0.170182 5.32774 109 53 63 
-0.239731 0.199056 5.57309 88 40 50 
-0.229883 0.206982 5.563 124 74 85 
-0.0245458 0.193607 5.33958 86 36 42 
-0.774671 0.261397 5.74604 205 201 189 
0.584134 0.168932 4.95204 116 85 96 
0.774266 0.152902 4.74904 92 66 83 
0.691519 0.178234 4.82783 134 130 148 
-0.820012 0.297641 5.75088 46 37 54 
0.138264 0.226434 5.18922 63 22 26 
0.877664 0.166592 4.6667 89 69 89 
-1.35438 0.398095 6.7663 64 26 33 
-0.766032 0.31607 5.73682 137 132 129 
-0.634163 0.33198 5.68958 120 102 90 
-0.616516 0.33478 5.67634 208 202 190 
-0.145919 0.314006 5.4706 128 79 85 
-0.880665 0.385111 6.09319 86 39 49 
-0.820093 0.367471 5.85718 29 25 26 
-0.676121 0.357007 5.71817 134 121 139 
-0.601471 0.351521 5.68831 47 27 35 
-0.594551 0.351982 5.68287 45 24 23 
-0.139627 0.322213 5.46336 93 43 54 
0.704243 0.248753 4.82029 56 43 60 
-0.622991 0.35687 5.67975 102 86 96 
-0.390907 0.341704 5.56722 62 28 35 
-0.896419 0.399438 6.10009 123 67 80 
-1.12012 0.442968 6.51924 58 27 33 
-0.840195 0.403529 6.05271 55 30 36 
0.851398 0.252069 4.62566 127 106 127 
0.139629 0.307663 5.03883 87 57 75 
-1.50671 0.514054 6.7461 107 62 80 
0.00938035 0.371008 5.28666 69 29 40 
0.0739745 0.365712 5.25313 71 25 33 
-2.00083 0.688512 7.65603 22 22 41 
-1.91199 0.698719 7.58093 16 22 40 
-1.92746 0.715995 7.59328 166 184 251 
-1.7813 0.756354 7.45331 60 46 64 
1.01819 0.4126 4.40453 136 125 138 
-1.92873 0.808212 7.58855 20 25 57 
-2.00017 0.840957 7.64622 137 138 202 
-2.00928 0.851239 7.68863 29 33 61 
-1.92753 0.837091 7.58703 159 179 248 
-1.90879 0.845503 7.56321 23 18 33 
0.934128 0.490932 4.51639 96 66 76 
-0.549631 0.61386 5.55792 112 64 77 
-0.00763194 0.552966 5.00622 67 36 44 
-1.93885 0.864418 7.59455 161 178 243 
-1.99479 0.874715 7.64096 14 15 30 
-1.93066 0.874151 7.58652 18 23 44 
-1.9226 0.878639 7.57901 16 20 33 
-0.829422 0.655425 5.73262 73 67 105 
-1.71245 0.775734 6.67479 65 39 44 
-0.795716 0.667344 5.68812 130 147 193 
-0.352068 0.624163 5.27488 114 64 76 
-1.65195 0.783774 6.59658 73 43 43 
0.0531711 0.567348 4.77633 101 55 66 
-1.3773 0.754822 6.31631 92 46 56 
-0.836836 0.692458 5.75684 100 54 63 
-0.781638 0.68609 5.69981 93 48 57 
-0.507984 0.657309 5.42218 99 51 60 
-0.31779 0.62804 5.18546 124 73 82 
-1.70489 0.810216 6.6641 58 40 52 
-1.54491 0.788769 6.48584 63 36 42 
-0.0468663 0.598117 4.90016 96 51 62 
-0.309203 0.635296 5.17553 126 80 96 
0.678974 0.599716 4.81133 67 45 56 
-0.727586 0.696344 5.63987 97 53 70 
-0.0421408 0.605561 4.89271 122 79 92 
-1.35496 0.779565 6.28805 134 86 100 
-0.566808 0.676436 5.4478 72 39 50 
-0.368898 0.650815 5.23886 83 45 56 
-0.303447 0.642892 5.16866 111 63 72 
-0.275849 0.639352 5.13755 116 64 77 
-0.202046 0.632975 5.07777 88 46 58 
-0.0374396 0.612996 4.88525 98 54 64 
-0.553703 0.683616 5.43618 137 93 109 
-0.547275 0.683023 5.43069 141 92 111 
-0.286151 0.655983 5.16176 137 90 102 
-0.28657 0.653211 5.14901 136 91 104 
-0.135504 0.633486 4.99241 122 95 107 
-0.0281859 0.623724 4.87065 140 93 109 
0.605224 0.643597 4.8799 61 45 58 
0.881506 0.638198 4.57656 79 61 80 
-0.364311 0.709078 5.2251 126 73 84 
-0.423795 0.721553 5.2898 100 54 60 
-0.370383 0.727991 5.23535 105 54 64 
-0.107434 0.695141 4.95061 121 66 77 
0.0664783 0.679484 4.7828 92 46 58 
-1.4398 0.890712 6.35965 107 56 62 
-1.16079 0.861733 6.09712 118 63 77 
-1.71549 1.04552 7.36935 51 40 54 
0.86078 0.693143 4.57242 86 64 83 
-0.456814 0.778836 5.34326 121 65 73 
-0.384134 0.763235 5.22167 99 55 61 
-0.104258 0.735912 4.94391 93 53 60 
0.890614 0.717954 4.5806 127 119 142 
0.704188 0.788199 4.73319 137 132 161 
0.968477 0.75632 4.47637 129 114 130 
0.914903 0.769946 4.51799 125 120 142 
0.700009 0.80336 4.74448 86 71 97 
-1.90291 1.22273 7.50751 54 50 67 
-1.84853 1.22343 7.49314 45 38 50 
-2.037 1.26477 7.68623 108 96 114 
-1.76663 1.23281 7.41349 51 43 57 
0.65005 0.916478 4.81334 84 62 76 
0.642543 0.913812 4.77535 105 101 128 
-0.0244338 0.924161 4.81662 93 43 53 
0.0216889 0.97684 4.73996 80 43 54 
-1.72969 0.96875 5.1482 90 44 56 
-1.7632 0.990019 5.19279 72 34 47 
0.625913 1.11099 4.80867 93 85 100 
0.6735 1.10842 4.74377 125 116 139 
0.808549 1.08936 4.5958 106 103 124 
0.6242 1.12718 4.81124 39 27 40 
1.17692 1.05284 4.23611 70 54 65 
0.647279 1.13067 4.75346 70 51 61 
0.957112 1.09797 4.43874 129 111 125 
0.980372 1.09716 4.42495 125 113 128 
-0.918158 0.978148 4.54653 123 68 87 
0.999615 1.09878 4.38938 97 65 81 
0.686096 1.15353 4.70683 128 112 124 
0.681785 1.16462 4.71836 80 61 69 
0.952657 1.12417 4.42395 89 66 85 
-0.0203213 1.14222 4.79888 101 47 57 
-1.03977 0.996771 4.53977 121 75 97 
-0.0553599 1.15164 4.81988 60 39 44 
-1.22781 1.00834 4.60292 96 46 54 
-1.76025 1.10628 5.15822 72 35 51 
-1.63121 1.09208 5.03539 108 56 68 
-1.63248 1.09449 5.01785 122 79 96 
-1.4 1.06158 4.76564 86 45 62 
-1.36223 1.06238 4.75104 99 53 71 
0.814993 1.22324 4.47382 77 62 87 
0.855845 1.22984 4.41366 85 71 87 
1.08273 1.20403 4.16942 36 22 35 
-1.90974 1.20251 5.31271 78 42 60 
1.15891 1.20279 4.0685 22 22 67 
1.1104 1.21706 4.12693 29 21 91 
1.18031 1.20201 4.02485 26 16 86 
-1.36379 1.1242 4.73494 109 60 72 
-1.74377 1.19746 5.14133 140 99 117 
1.20279 1.22267 4.0307 153 158 222 
-1.40798 1.14793 4.77978 102 54 70 
-1.21658 1.1249 4.57168 78 40 58 
1.12407 1.25525 4.0923 167 184 253 
-2.39876 1.59489 6.72558 100 109 99 
1.21925 1.29163 4.0124 29 18 41 
1.173 1.3052 4.05029 17 28 63 
1.22837 1.29862 4.00395 29 31 40 
1.2043 1.3183 4.02339 17 16 42 
-1.18403 1.19292 4.50941 122 74 89 
-1.63205 1.37277 4.73959 61 46 115 
-1.73132 1.39027 4.79832 205 221 255 
-1.65276 1.38322 4.73985 180 206 255 
-1.75984 1.39294 4.80351 46 37 61 
0.696811 -1.39837 4.99862 91 62 84 
0.708873 -1.30741 4.96017 84 71 89 
0.864382 -1.29883 4.81202 91 72 90 
-1.1934 -1.24287 7.03283 65 38 53 
-1.17467 -1.23957 7.0014 61 35 44 
0.168591 -1.25878 5.55368 72 63 79 
0.865641 -1.25956 4.8032 129 116 142 
0.273931 -1.21954 5.40632 105 75 83 
0.653923 -1.19488 5.02577 99 74 95 
-1.28631 -1.12633 7.09597 66 46 53 
-1.26202 -1.13389 7.11041 64 44 53 
0.0567118 -1.16312 5.64358 94 76 92 
0.89084 -1.16959 4.8064 122 109 132 
0.816156 -1.16044 4.87829 67 55 69 
-1.26696 -1.08139 7.09008 94 76 96 
-1.70156 -1.06093 7.55482 67 56 69 
0.683058 -1.11752 4.98173 128 113 129 
0.649288 -1.08192 5.03157 80 61 72 
0.675056 -1.07095 4.96462 93 69 90 
-0.0853667 -0.9314 5.29318 138 109 127 
-1.70313 -0.919641 7.50319 76 67 86 
-0.552606 -0.880593 5.63657 145 90 108 
-0.309311 -0.916518 5.57602 42 22 31 
-0.599941 -0.871051 5.70358 83 42 50 
-1.26209 -0.919065 7.07696 61 49 79 
-1.40978 -0.910409 7.2609 72 59 69 
-1.32132 -0.904159 7.14654 71 48 56 
-1.10624 -0.830374 6.25255 76 38 46 
-0.595225 -0.845588 5.69824 133 79 92 
-1.076 -0.822678 6.22878 76 37 54 
-0.176682 -0.87207 5.36359 64 29 35 
-0.590758 -0.830488 5.69375 75 39 47 
0.573691 -0.953007 5.06647 131 106 121 
-0.969144 -0.808657 6.10001 75 42 49 
0.873288 -0.952816 4.72567 58 48 62 
-0.968775 -0.79294 6.09866 120 74 85 
-2.06128 -0.805868 7.87878 69 56 72 
0.354455 -0.900876 5.30898 119 83 97 
-1.40283 -0.803784 7.21185 134 110 129 
-0.608081 -0.697683 5.90425 62 31 37 
-1.50994 -0.67602 7.30531 57 45 56 
-2.04975 -0.613992 7.86039 55 52 71 
0.916736 -0.771755 4.6844 84 61 70 
0.944622 -0.770905 4.64908 84 63 80 
0.67413 -0.738595 4.9135 93 72 81 
0.195723 -0.691503 5.48391 75 55 67 
0.244555 -0.686221 5.4157 99 69 90 
-0.721456 -0.522922 5.95655 70 34 38 
-0.764205 -0.517749 6.0506 84 47 55 
-0.860658 -0.505362 6.13126 63 28 36 
-0.617169 -0.522885 5.89903 53 23 31 
-1.70498 -0.468579 7.49329 71 55 75 
-0.625534 -0.50061 5.90333 118 66 73 
-0.758759 -0.486205 6.04521 116 63 72 
-0.585761 -0.479363 5.84413 56 26 34 
-0.819152 -0.452578 6.07747 67 35 42 
1.04516 -0.597274 4.5284 72 59 72 
-0.787264 -0.441459 6.08695 120 66 80 
-0.805971 -0.428609 6.09651 72 35 39 
0.306213 -0.518226 5.31467 114 81 92 
-1.67626 -0.354804 7.44772 82 69 87 
-1.73307 -0.295569 7.50805 126 108 130 
-1.08499 -0.322034 6.54287 85 48 55 
-0.197327 -0.38479 5.60319 77 40 47 
0.805513 -0.412882 4.78984 60 44 56 
0.448452 -0.374185 5.16871 127 118 141 
-1.39965 -0.167345 7.13317 91 74 92 
-1.61505 -0.13949 7.39152 46 36 48 
0.544069 -0.289446 5.0335 83 57 71 
-1.62396 -0.108187 7.37678 71 67 92 
-2.13649 -0.0558197 7.89342 81 75 101 
-0.740793 -0.162167 6.02391 155 130 119 
1.04143 -0.260574 4.45679 44 32 42 
0.665911 -0.218898 4.94402 60 45 54 
-0.518154 -0.114206 5.73916 66 26 37 
-1.00006 -0.06412 6.24811 72 39 48 
-0.480233 -0.107279 5.70866 67 31 43 
-0.151716 -0.122354 5.5037 61 29 39 
-0.0916719 -0.127915 5.47523 63 29 37 
-2.13294 0.0495558 7.88523 78 76 93 
-1.62051 0.00576205 7.3673 42 33 49 
-1.26183 -0.0179884 6.67556 85 42 51 
-1.85898 0.0385074 7.5886 112 94 113 
-2.14229 0.0697056 7.89082 111 102 133 
-1.08201 -0.0162116 6.51914 75 40 48 
-0.623572 -0.045199 5.87144 192 183 154 
-0.0570796 -0.0462739 5.39319 82 43 51 
-0.662175 0.010407 5.84556 194 183 163 
-0.106284 -0.0358746 5.44892 63 29 38 
-0.0355122 -0.0363216 5.39213 122 71 84 
-0.736562 0.0376736 5.855 207 192 169 
1.04896 -0.107956 4.48802 106 77 96 
0.654832 -0.0683499 4.89489 67 43 65 
-0.514668 0.0413109 5.7261 102 55 63 
1.05111 -0.0924118 4.47085 130 113 134 
0.998052 -0.0728541 4.49328 118 93 104 
-0.641735 0.127661 5.90168 118 96 73 
-0.10253 0.0798333 5.40084 107 49 61 
-0.679511 0.135339 5.88234 114 92 68 
-0.615571 0.133013 5.90134 69 42 33 
-0.48517 0.116479 5.66735 96 46 55 
-0.440248 0.112246 5.63029 70 28 40 
-0.668469 0.145966 5.91793 81 53 41 
-0.431804 0.127214 5.62215 74 44 54 
-1.6664 0.294307 7.36047 62 50 70 
-1.83836 0.340708 7.53872 124 105 124 
-0.511171 0.188752 5.71395 76 29 45 
-0.991925 0.242346 6.22265 58 24 35 
-0.88024 0.229761 6.09021 59 24 34 
0.603332 0.103344 4.94368 82 63 75 
-0.0369503 0.163917 5.41721 69 29 35 
-1.80937 0.365612 7.55409 51 48 64 
0.599473 0.142203 4.95028 98 71 85 
-0.223886 0.217079 5.55649 85 40 45 
-0.0767521 0.201342 5.40094 79 34 39 
-0.0250756 0.195442 5.34011 75 28 35 
-1.05246 0.312852 6.45759 53 24 29 
0.572752 0.170379 4.94596 107 75 87 
-0.81797 0.298207 5.75402 96 88 101 
0.994504 0.158172 4.51111 95 69 82 
-0.633731 0.311747 5.70961 180 173 155 
-1.80585 0.483053 7.49981 58 50 61 
-0.591153 0.323648 5.67726 201 190 177 
-0.154079 0.305995 5.47975 76 34 44 
-0.455783 0.331615 5.62903 97 45 50 
-0.808176 0.363995 5.8502 82 69 53 
-0.513307 0.342072 5.67511 75 28 39 
-0.431351 0.334588 5.6082 58 21 28 
-0.881177 0.389728 6.08995 60 21 32 
-0.598914 0.350256 5.68142 48 22 25 
-0.905159 0.395784 6.09063 127 71 82 
-0.138946 0.325698 5.46241 64 24 33 
-1.08094 0.437544 6.45786 64 29 36 
0.164725 0.326763 4.98297 58 36 44 
-1.03723 0.487197 6.43926 60 28 34 
0.0083007 0.372032 5.28797 65 27 38 
-1.23014 0.518372 6.62729 75 30 39 
-0.474139 0.422442 5.63849 85 34 43 
0.120796 0.355776 5.0081 76 33 47 
-0.910383 0.477927 6.11481 73 35 46 
-0.439324 0.432167 5.57784 69 40 49 
-1.84239 0.659826 7.48139 121 103 119 
-1.93205 0.679212 7.60623 31 39 56 
-1.9846 0.696711 7.64954 125 113 171 
-1.9413 0.692732 7.6132 134 147 209 
-1.99894 0.709831 7.71048 15 23 40 
-1.9125 0.69632 7.58761 18 23 36 
-1.99848 0.723223 7.65877 162 172 235 
-1.05426 0.580678 6.19777 147 93 116 
0.5874 0.433015 4.89972 91 67 80 
-1.92988 0.745423 7.60099 13 32 88 
-1.97711 0.78136 7.63839 22 24 48 
-1.95586 0.777332 7.6067 14 30 80 
-0.348496 0.572402 5.42328 115 63 76 
-1.92709 0.836817 7.59313 158 180 248 
-2.00529 0.855317 7.70082 16 22 43 
-1.90776 0.847591 7.57501 21 20 35 
-1.9793 0.866826 7.63515 150 159 219 
-0.844013 0.667824 5.74511 136 144 186 
-0.632113 0.653483 5.54468 77 44 59 
-1.57867 0.781302 6.57051 93 53 60 
-1.31137 0.750669 6.27469 81 37 52 
-0.528444 0.652159 5.40156 115 67 78 
-0.259302 0.624471 5.13021 99 51 64 
-0.0571256 0.596189 4.90282 107 56 61 
-0.742801 0.694704 5.62343 81 47 64 
-0.471845 0.661617 5.34949 77 43 54 
-0.363607 0.652397 5.24367 75 43 54 
-0.541407 0.682279 5.44002 141 94 114 
-0.281783 0.652372 5.15449 136 90 104 
-0.0347502 0.621956 4.86789 139 94 109 
-1.40509 0.841752 6.38755 82 41 48 
-1.23367 0.811202 6.12435 99 53 69 
-1.42911 0.853941 6.3684 101 56 66 
-0.446658 0.71572 5.26236 100 54 60 
-1.23808 0.834393 6.17236 95 49 66 
-0.617723 0.760853 5.52603 114 66 82 
-0.440676 0.738565 5.31521 102 52 61 
-0.404254 0.7302 5.24933 106 58 69 
-0.209454 0.712263 5.06524 108 60 69 
-0.189536 0.706848 5.02929 124 67 77 
0.0853192 0.676004 4.7506 89 39 51 
-1.43109 0.893721 6.38492 97 50 56 
0.878312 0.68043 4.57059 69 52 70 
-0.681243 0.826367 5.57068 91 59 70 
0.854522 0.716214 4.56308 125 113 136 
0.949587 0.756636 4.4699 136 119 136 
0.914149 0.768682 4.52153 125 120 143 
-2.1291 1.24366 7.72722 67 64 84 
-0.0157142 0.926629 4.8224 76 33 44 
-1.81861 0.976821 5.23329 95 51 59 
0.0868678 0.995388 4.6892 89 44 52 
-0.920658 0.899294 4.54365 127 76 89 
0.615983 1.10833 4.79994 93 85 100 
0.627496 1.10101 4.77082 111 108 126 
1.13307 1.02496 4.22338 99 71 85 
0.665299 1.10862 4.7417 128 118 139 
1.13789 1.0462 4.21889 69 51 63 
0.656281 1.13424 4.76441 65 48 55 
0.7912 1.11381 4.59747 70 54 77 
0.946038 1.09434 4.43769 122 111 128 
1.07481 1.07673 4.31031 63 46 58 
0.0883998 1.08545 4.68182 86 42 46 
0.0339015 1.09896 4.73376 88 47 61 
1.01079 1.1021 4.39801 98 65 81 
-1.75645 1.0682 5.17211 63 36 50 
-1.72724 1.06368 5.14022 77 38 53 
-0.0299031 1.14066 4.79435 97 45 54 
-0.0512024 1.15054 4.82619 58 39 45 
-1.38806 1.06561 4.78172 101 51 69 
-0.840998 1.08441 4.52871 106 64 81 
1.04512 1.1952 4.15312 61 39 53 
1.17615 1.18158 4.0303 25 20 45 
-1.91047 1.19983 5.31311 97 51 64 
1.16575 1.18792 4.03432 155 168 231 
1.09181 1.21201 4.14139 173 197 255 
1.15419 1.20405 4.06758 17 27 49 
1.1843 1.1957 4.01819 14 20 32 
1.06738 1.22281 4.15823 16 19 47 
-1.74034 1.19838 5.14051 146 106 124 
-1.2199 1.12192 4.5719 91 49 61 
1.13252 1.25434 4.07205 154 186 247 
1.06445 1.29337 4.15575 51 30 46 
1.18151 1.28453 4.01428 158 176 244 
1.19631 1.28795 4.0016 25 15 38 
1.10545 1.30813 4.09908 42 27 91 
1.1473 1.29641 4.04077 16 27 54 
1.20362 1.29197 3.99502 24 26 37 
1.16615 1.29961 4.02517 155 175 242 
1.08941 1.32715 4.13539 15 25 43 
1.18084 1.31232 4.01166 17 17 38 
-1.19029 1.22173 4.47017 147 99 114 
-1.82018 1.41665 5.08565 121 127 144 
-1.39209 1.36401 4.66582 84 56 70 
-1.63864 1.37565 4.74569 47 33 88 
-1.58744 1.37206 4.69822 209 223 255 
-1.73201 1.39098 4.801 181 197 253 
-1.6505 1.38266 4.73871 193 217 255 
0.657193 -1.38597 5.04478 135 113 131 
1.06318 -1.32594 4.59977 90 72 98 
0.275414 -1.21792 5.41219 105 75 85 
0.238057 -1.20734 5.4665 91 63 70 
0.206409 -1.19959 5.50884 106 73 89 
-0.0166938 -1.16392 5.72586 63 42 49 
0.0768335 -1.17336 5.67016 104 85 99 
0.0422783 -1.14424 5.65885 126 112 138 
0.239815 -1.09317 5.45672 84 64 76 
0.652105 -1.08307 5.03665 85 65 74 
0.720243 -1.0828 4.94678 68 44 65 
-0.313857 -0.918256 5.58072 47 28 40 
-1.70008 -0.915104 7.50859 78 70 89 
-0.609654 -0.865832 5.68766 77 37 46 
-0.97663 -0.840889 6.08466 65 26 37 
-0.593173 -0.846558 5.70835 131 79 92 
-0.184931 -0.868961 5.35878 71 31 40 
0.926415 -0.957172 4.6702 56 48 57 
0.364916 -0.905409 5.31324 119 82 90 
-2.04219 -0.755774 7.88555 63 56 70 
-0.585759 -0.741222 5.69577 129 72 87 
0.266877 -0.832958 5.40185 111 87 104 
-0.60588 -0.704847 5.6744 140 88 100 
0.97322 -0.823584 4.60384 131 105 132 
1.03208 -0.826445 4.59241 107 82 103 
0.920545 -0.77297 4.68595 93 70 78 
-0.922194 -0.603947 6.1368 71 35 38 
0.19936 -0.691764 5.48769 75 55 67 
-0.716466 -0.51517 6.0507 51 22 24 
-0.638111 -0.502036 5.89441 104 59 62 
0.733026 -0.570356 4.88579 57 39 46 
-0.788237 -0.442424 6.08757 118 65 78 
1.00068 -0.580255 4.58593 107 90 109 
0.308636 -0.51543 5.31973 110 73 89 
-0.838507 -0.39171 6.11166 64 30 38 
-1.10408 -0.319835 6.51589 86 51 58 
-0.200475 -0.384831 5.59941 77 40 47 
-1.02601 -0.272557 6.48611 62 31 40 
-0.654464 -0.287852 5.92625 58 27 27 
-0.64287 -0.250619 5.95134 43 23 24 
-1.64002 -0.140337 7.35037 49 39 50 
-1.59936 -0.138245 7.3872 111 84 102 
-0.502937 -0.157977 5.69968 65 32 40 
0.883764 -0.259334 4.68769 63 44 58 
0.654319 -0.233934 4.90341 63 38 47 
1.07508 -0.261615 4.47982 43 30 40 
0.776106 -0.232207 4.77217 80 60 67 
-0.515249 -0.112322 5.74299 61 28 35 
-0.443015 -0.116392 5.64715 68 41 46 
0.63537 -0.194618 4.90846 136 110 134 
-0.14098 -0.122041 5.52111 62 31 42 
1.0424 -0.22287 4.50429 134 119 137 
-0.634466 -0.0172821 5.86538 214 207 178 
-0.145831 -0.0578555 5.47905 95 49 59 
-0.690409 -3.79252e-05 5.8957 61 38 24 
-0.162927 -0.0304763 5.4956 60 30 38 
-0.091011 -0.0367304 5.46146 59 31 38 
-0.0232967 -0.0244375 5.38214 58 27 36 
-0.523605 0.0365202 5.70324 99 53 63 
1.04597 -0.0909015 4.47436 121 109 132 
0.650196 -0.0474078 4.89065 80 53 76 
1.04512 -0.0712439 4.47899 62 48 63 
-0.130048 0.0751197 5.45374 150 94 109 
0.838473 -0.00484918 4.61206 64 41 61 
-0.09125 0.0838077 5.40987 101 45 58 
-0.186518 0.125853 5.51056 101 51 60 
0.596992 0.105379 4.94505 95 73 88 
-0.18995 0.17749 5.51089 84 39 46 
-0.0194101 0.171562 5.31921 89 38 47 
0.594859 0.144992 4.94762 106 79 94 
0.889535 0.120871 4.65019 124 99 117 
0.872074 0.14396 4.59295 80 63 77 
0.120577 0.227207 5.17776 86 37 40 
0.855585 0.17489 4.65837 73 65 80 
-1.35151 0.399409 6.77631 70 31 37 
-0.743049 0.327946 5.74024 64 42 31 
-0.578729 0.325308 5.6911 202 195 179 
-0.635015 0.333819 5.6977 125 106 92 
-0.614757 0.332093 5.68287 173 161 161 
-0.432989 0.333692 5.60965 75 28 36 
-0.588233 0.351123 5.69662 48 22 25 
0.677088 0.246637 4.8064 88 63 79 
-0.629327 0.358171 5.69198 104 86 97 
-0.556653 0.357397 5.70771 109 80 82 
-0.127429 0.327736 5.47885 59 24 31 
-0.103537 0.321124 5.40938 77 30 40 
0.696317 0.251368 4.79757 131 114 127 
0.906559 0.228613 4.57291 135 117 137 
-0.863451 0.438651 6.06674 74 38 45 
-0.54042 0.399993 5.69259 76 31 34 
0.125955 0.327824 5.01018 80 47 62 
0.169494 0.325433 4.99302 72 43 53 
-1.03744 0.486733 6.43387 60 26 31 
0.112847 0.342247 5.02978 138 88 105 
0.0205407 0.374254 5.3038 59 27 36 
0.067207 0.368079 5.24343 61 22 30 
-1.27777 0.527008 6.69007 55 28 37 
-1.23651 0.51987 6.61795 65 28 38 
-0.474885 0.425655 5.6389 65 24 32 
-0.430964 0.421629 5.6024 65 24 32 
-0.90592 0.482399 6.11779 61 33 38 
0.0900934 0.396909 5.01101 113 70 80 
0.0607837 0.445907 5.00309 123 73 92 
0.759251 0.40505 4.6795 127 109 125 
0.747339 0.43189 4.68324 83 66 85 
-1.97277 0.796679 7.59937 167 182 251 
-0.639562 0.654886 5.54467 75 42 53 
0.0906185 0.565265 4.74689 73 37 45 
0.749031 0.562994 4.6725 67 112 205 
-1.69018 0.810907 6.68584 43 32 41 
-0.249889 0.62479 5.13913 116 67 79 
0.672431 0.593169 4.81702 84 62 80 
-1.62532 0.809304 6.56835 103 67 71 
-0.372128 0.64694 5.23415 103 59 72 
-0.549913 0.679006 5.43587 140 92 114 
0.636189 0.613215 4.8258 113 96 113 
-0.277096 0.652369 5.16881 138 87 102 
0.978002 0.601011 4.50913 84 61 74 
-1.41676 0.85892 6.38937 82 44 54 
-1.26641 0.837116 6.20508 105 57 70 
-0.154009 0.688978 5.01698 111 60 69 
-0.622356 0.762541 5.52451 88 50 68 
-0.461949 0.742851 5.35305 80 41 52 
-0.45186 0.736657 5.30795 126 73 86 
-0.2018 0.714093 5.07618 105 58 69 
0.0838767 0.679315 4.75287 101 51 63 
-0.720226 0.807941 5.62715 127 77 93 
-0.456692 0.778484 5.34594 132 78 85 
0.843876 0.753358 4.58357 85 65 77 
0.863108 0.754249 4.54647 80 70 93 
0.674681 0.923263 4.7958 142 144 165 
0.043465 0.984914 4.75623 71 37 49 
0.650616 1.13389 4.76519 57 44 52 
0.910971 1.10033 4.52648 63 51 72 
0.798781 1.11688 4.60625 67 51 75 
1.06598 1.07828 4.31041 65 48 63 
0.0834372 1.08903 4.68216 54 31 37 
0.0455966 1.10523 4.74636 85 54 68 
-1.59108 1.03039 4.96557 103 56 71 
-1.21327 0.986365 4.595 107 52 61 
-0.0407211 1.13876 4.78826 112 60 71 
-1.76294 1.10641 5.16015 81 40 51 
-1.57741 1.10697 4.97104 96 44 66 
0.778056 1.2153 4.45427 94 77 98 
-1.72602 1.16823 5.13924 93 51 73 
1.14471 1.1908 4.0402 110 146 215 
-1.39741 1.11916 4.75583 119 69 81 
1.07925 1.21512 4.13828 173 194 255 
1.1761 1.19384 4.0141 14 20 32 
1.07836 1.23932 4.16094 120 119 157 
-1.35491 1.1445 4.72226 107 58 77 
1.12205 1.24162 4.085 17 24 60 
-1.20985 1.12811 4.58361 85 43 56 
1.1731 1.28358 4.01095 159 178 247 
1.13217 1.29224 4.04318 20 23 41 
1.18637 1.28804 3.99943 22 11 51 
1.15481 1.29609 4.02451 155 176 241 
1.16835 1.29503 4.01357 149 165 234 
1.08047 1.32443 4.13586 17 25 46 
1.17243 1.31132 4.00834 21 18 38 
-1.57194 1.37272 4.69631 41 40 75 
-1.59412 1.37258 4.69405 228 234 255 
-1.71135 1.40974 4.83569 221 229 255 
-0.575911 -1.29264 5.60982 81 34 50 
0.718905 -1.53822 5.07323 73 54 82 
0.250187 -1.41449 5.51672 95 70 96 
0.204004 -1.40558 5.56187 135 124 141 
0.211997 -1.39801 5.56653 94 71 92 
0.212353 -1.37395 5.56219 87 64 90 
0.691701 -1.41238 5.07502 102 84 105 
-1.74665 -1.03492 7.452 101 80 86 
0.952613 -1.36501 4.82768 101 72 96 
0.953466 -1.35862 4.81958 58 38 64 
-1.05958 -1.06552 6.78124 48 32 53 
0.668632 -1.23672 5.08873 104 96 114 
-2.01157 -0.888198 7.71456 135 126 141 
-1.3007 -0.976773 7.02309 55 42 65 
-1.22407 -0.984143 6.93683 93 64 82 
-1.26345 -0.922035 6.97444 96 68 89 
-1.68679 -0.855652 7.38751 118 115 127 
-1.69987 -0.843369 7.41013 71 47 63 
0.75915 -1.12543 4.99051 133 118 136 
-1.52318 -0.813687 7.22063 83 72 89 
0.771051 -1.0904 4.97485 77 52 73 
-2.05007 -0.637283 7.6959 143 130 147 
-1.59011 -0.6714 7.27631 64 52 68 
0.681562 -0.934695 5.0557 129 110 128 
0.602212 -0.924397 5.14858 69 40 55 
-1.54728 -0.644236 7.21249 72 57 79 
-1.54452 -0.601775 7.21549 72 56 69 
-1.48698 -0.561936 7.1545 72 53 75 
-1.48828 -0.547685 7.14359 56 42 55 
-0.732257 -0.598075 5.9845 77 34 48 
0.643449 -0.71902 5.07655 78 52 77 
-0.851619 -0.486452 6.10198 70 28 37 
0.630752 -0.622751 5.06739 93 63 86 
-1.21728 -0.366973 6.84511 81 66 77 
-1.32926 -0.231703 6.95768 80 51 76 
-0.722731 -0.273339 5.9295 146 129 111 
-0.728935 -0.269921 5.93529 78 41 39 
-0.730862 -0.262754 5.94747 148 132 114 
-0.732769 -0.263357 5.93822 141 124 104 
-0.740971 -0.259654 5.95687 179 166 141 
-0.697748 -0.185654 5.92016 198 187 159 
-0.707629 -0.154518 5.92436 194 182 156 
-0.711915 -0.14349 5.91399 204 195 174 
-0.446704 -0.159691 5.64631 68 30 41 
-0.942206 -0.102434 6.13644 57 25 33 
-2.18939 0.0943398 7.73899 101 95 119 
-0.820338 -0.0659894 6.02019 162 143 128 
-0.66717 -0.0775389 5.92137 172 157 129 
-0.652193 -0.0664571 5.90515 200 186 157 
-0.815447 -0.0363236 5.90687 140 115 99 
-0.785036 -0.0220751 5.88702 219 210 191 
-0.640431 -0.0270619 5.86572 206 197 168 
-0.809647 0.0208695 6.00164 146 123 104 
-0.80036 0.0175316 5.8869 188 171 150 
-0.731499 0.0470926 5.83773 111 92 86 
-0.737257 0.0634682 5.83518 176 160 135 
0.760148 -0.017241 4.86781 92 69 86 
-1.96204 0.292521 7.5175 109 93 111 
-0.432799 0.114371 5.63707 75 28 36 
-0.479342 0.120049 5.66845 65 22 30 
-0.680456 0.157202 5.89813 105 73 62 
-0.516789 0.194109 5.70515 65 23 34 
-0.397623 0.181631 5.58395 64 22 32 
-0.832968 0.22899 5.81178 171 159 147 
-0.673081 0.218132 5.77244 197 191 193 
-0.803316 0.228346 5.77188 196 192 181 
-0.833516 0.24141 5.76917 194 189 183 
-0.815089 0.273101 5.91833 144 122 99 
-1.81934 0.416615 7.36733 83 62 83 
-0.774774 0.271533 5.73821 196 194 179 
-0.842509 0.28157 5.73227 84 67 57 
-0.834266 0.282258 5.72383 99 83 68 
-0.827327 0.284606 5.73748 126 113 97 
0.838049 0.162126 4.78082 85 57 80 
-0.851774 0.305479 5.77028 114 107 114 
-0.823748 0.305605 5.73167 95 83 90 
-0.824293 0.304881 5.72179 128 118 127 
0.772184 0.184899 4.8576 129 122 138 
-1.39172 0.398003 6.70288 62 18 23 
-0.868985 0.314029 5.77592 142 131 125 
-0.85315 0.321884 5.8321 67 53 44 
-0.630962 0.314218 5.72107 214 208 192 
-0.645906 0.321461 5.70648 194 181 165 
-0.628742 0.345567 5.6846 118 99 99 
-0.623033 0.344868 5.67821 194 185 178 
-0.634425 0.350503 5.69057 178 165 156 
0.760856 0.25629 4.84578 62 42 63 
-0.432153 0.42171 5.60168 76 26 35 
-0.970244 0.483794 6.12818 66 21 31 
-0.931593 0.478653 6.08866 70 23 34 
-2.20805 0.665937 7.6951 111 103 119 
-1.98252 0.660369 7.47179 61 51 67 
-1.99168 0.677912 7.48538 56 54 77 
-2.06988 0.69321 7.56387 45 48 76 
-2.04096 0.690186 7.53575 50 35 87 
-1.99104 0.686737 7.48132 142 168 227 
-2.05944 0.708389 7.55247 27 31 77 
-2.06054 0.712251 7.55349 55 56 103 
-2.053 0.730811 7.54306 70 74 135 
0.69157 0.470884 4.88115 82 59 81 
-2.01351 0.773466 7.49049 25 48 112 
-1.96801 0.792518 7.44345 37 37 73 
0.821408 0.529197 4.71131 74 114 213 
-1.98212 0.816035 7.44859 31 53 126 
0.830308 0.541165 4.7143 78 122 215 
-1.97725 0.8274 7.45405 141 169 232 
-2.05653 0.836472 7.52616 149 145 202 
-1.97059 0.827259 7.44031 32 37 83 
-2.07812 0.849999 7.53991 35 38 62 
0.829792 0.564527 4.71005 73 118 213 
-2.03733 0.860851 7.50037 145 135 186 
-1.99206 0.856494 7.45668 117 137 187 
-0.849322 0.670184 5.74067 136 153 199 
0.829095 0.577953 4.71051 81 123 214 
0.829888 0.579187 4.70489 89 125 214 
-1.74756 0.771263 6.59815 69 37 42 
-1.40718 0.757659 6.27156 68 29 39 
0.0282833 0.620874 4.87627 81 37 48 
1.24324 0.584528 4.31084 133 106 113 
-0.181524 0.646769 5.08177 85 49 67 
-0.455173 0.67601 5.35251 90 48 66 
-0.740065 0.705574 5.62267 84 46 61 
-1.57767 0.791538 6.42486 79 45 55 
-1.47558 0.780701 6.32377 75 46 58 
0.856003 0.637262 4.7116 76 57 81 
-1.77437 0.816818 6.62454 116 111 121 
-0.340546 0.723755 5.24219 74 33 48 
-0.0858367 0.706525 4.9667 105 51 65 
-0.456583 0.747677 5.34638 85 41 57 
-1.29842 0.834791 6.15098 100 48 60 
-1.57044 0.864116 6.42097 88 38 52 
-1.46851 0.85382 6.31938 88 44 62 
0.963574 0.771557 4.59327 65 52 76 
-1.90257 1.20389 7.35699 43 33 43 
1.17549 1.09115 4.33784 92 95 110 
1.28483 1.22754 4.09172 70 84 156 
1.18581 1.23655 4.15596 80 67 147 
1.23787 1.28089 4.11632 37 55 138 
1.17636 1.33921 4.20105 49 28 41 
-1.73447 1.54435 6.32641 75 76 92 
-1.62429 1.37891 4.73876 76 59 152 
-1.66672 1.38332 4.73347 144 156 213 
0.146446 -1.52318 5.63051 109 72 90 
0.728381 -1.54106 5.07699 73 54 82 
0.709228 -1.53265 5.10135 95 75 100 
0.241354 -1.40974 5.51227 100 74 99 
0.202238 -1.40428 5.56148 139 127 147 
0.190117 -1.40104 5.58293 107 74 98 
0.202093 -1.39506 5.5605 105 83 107 
0.220577 -1.35882 5.54497 73 53 73 
-1.2542 -1.15531 6.99425 97 66 81 
0.716845 -1.39323 5.0456 102 72 94 
0.246005 -1.30221 5.51316 99 71 86 
-1.71547 -1.04453 7.42891 100 86 97 
-1.40028 -1.08463 7.12621 80 58 70 
-1.70536 -1.04621 7.43539 100 96 107 
-1.73765 -1.03913 7.46728 100 74 83 
0.160041 -1.26724 5.59601 115 102 118 
0.952461 -1.36547 4.82884 92 66 90 
0.953591 -1.36018 4.81938 52 31 59 
-1.04744 -1.10453 6.79063 50 34 58 
-1.07084 -1.06304 6.77263 70 56 74 
0.948348 -1.26645 4.82787 85 76 105 
-2.01656 -0.886127 7.70504 141 128 144 
-1.30047 -0.977285 7.02423 60 49 74 
0.941085 -1.24755 4.82546 111 99 122 
-1.99672 -0.845468 7.6783 58 51 68 
0.278258 -1.09291 5.4713 73 55 71 
0.306912 -1.09606 5.43924 90 67 87 
0.768371 -1.14644 4.9826 58 38 52 
-1.62742 -0.845146 7.31268 83 58 82 
-1.59728 -0.846389 7.27614 74 51 67 
0.306568 -1.07761 5.43727 108 94 120 
-0.484367 -0.912484 5.57811 141 93 107 
-0.472177 -0.913275 5.57744 141 94 110 
0.302254 -1.05886 5.44341 83 55 77 
-0.981584 -0.837229 6.09015 76 39 53 
-0.47475 -0.898465 5.5792 143 102 120 
-0.609284 -0.877276 5.72943 77 42 56 
0.778572 -1.09289 4.97789 84 60 81 
-0.60278 -0.861735 5.70589 99 50 63 
-0.465124 -0.879217 5.57972 88 42 60 
-1.37108 -0.740869 6.49248 136 75 84 
-1.43395 -0.723947 7.11924 79 57 75 
-2.05239 -0.636999 7.69467 141 125 143 
0.67539 -0.954902 5.05189 70 46 62 
-1.59591 -0.670111 7.26789 64 55 72 
0.677635 -0.933921 5.05609 135 118 138 
-1.54709 -0.644928 7.21377 79 64 85 
-0.80851 -0.669366 6.07129 83 42 50 
0.286505 -0.827713 5.41679 112 86 107 
-1.54753 -0.600722 7.21136 82 66 79 
-1.4233 -0.596156 7.08325 95 68 83 
-1.49181 -0.562714 7.1505 82 64 87 
-0.727765 -0.599639 5.98917 79 39 52 
1.10641 -0.84074 4.62698 100 75 106 
-1.48539 -0.490068 7.1309 56 45 65 
-1.80459 -0.443756 7.44752 87 63 91 
0.703418 -0.737022 5.00209 84 68 94 
0.788407 -0.745586 4.92732 81 61 84 
1.34727 -0.811589 4.37508 83 64 94 
-1.40796 -0.48085 7.0648 100 83 100 
0.429034 -0.694023 5.2744 129 124 144 
0.63226 -0.70425 5.08389 87 78 100 
-1.3891 -0.462076 7.03588 63 46 65 
0.399406 -0.673993 5.31198 88 74 98 
-0.873632 -0.49796 6.1218 74 35 45 
-0.85103 -0.485859 6.1015 70 28 37 
0.621509 -0.620412 5.06316 99 68 91 
-1.72706 -0.297871 7.37003 104 75 93 
1.13983 -0.601861 4.55752 58 44 62 
-1.05405 -0.264025 6.44483 55 28 37 
-0.725319 -0.270581 5.93847 78 41 39 
-0.728414 -0.269109 5.94121 77 37 39 
-0.73295 -0.262285 5.94487 148 132 114 
-1.34404 -0.163979 6.95718 67 49 76 
0.587693 -0.358902 5.08626 149 129 147 
-0.758906 -0.156468 5.99119 142 114 109 
-0.787732 -0.136834 6.00474 145 122 111 
-0.793251 -0.124875 6.01286 158 137 120 
-0.498319 -0.153702 5.69402 70 28 38 
-0.447137 -0.160327 5.64693 86 44 54 
-0.942191 -0.102609 6.13647 68 33 43 
-0.805738 -0.100569 6.02152 152 130 114 
-2.19186 0.0659657 7.76495 59 57 81 
-1.92779 0.0402594 7.50109 113 102 125 
-0.770932 -0.0941255 5.92425 193 181 159 
-0.811988 -0.0812156 6.02504 158 139 125 
-0.78317 -0.074776 5.91573 175 159 143 
-0.821651 -0.0658878 6.01928 156 133 120 
-0.821586 -0.0587171 6.01854 163 144 128 
-0.645528 -0.071836 5.892 202 190 164 
-0.639617 -0.062187 5.8849 188 176 152 
-0.807584 -0.0174722 5.89957 151 131 114 
-0.781618 -0.00812011 5.88652 213 202 180 
-0.634876 -0.0122964 5.86068 219 208 179 
-0.0924171 -0.0643088 5.47865 140 93 106 
-0.75635 0.0293832 5.85787 210 199 177 
-1.69509 0.149162 7.26066 74 54 75 
-0.767354 0.0403985 5.85453 177 164 142 
-0.756704 0.0410369 5.85044 223 209 182 
-0.699473 0.0407389 5.84828 102 91 99 
-0.746052 0.0533515 5.84509 184 172 148 
-0.94159 0.0836838 6.12891 81 37 48 
-0.721826 0.0582246 5.8334 96 68 57 
-0.411176 0.0276442 5.61116 88 41 49 
-0.746034 0.0769282 5.84258 140 123 97 
1.1258 -0.0750735 4.51166 83 58 77 
0.760035 -0.0170204 4.86814 98 76 92 
-0.626118 0.12748 5.89259 112 93 74 
-1.86722 0.280953 7.42815 113 94 112 
-1.95843 0.293368 7.52238 109 93 111 
-0.976194 0.172786 6.1585 71 28 36 
-0.933298 0.16813 6.12572 78 30 42 
-0.478124 0.120198 5.66949 65 22 30 
-0.436332 0.116501 5.6334 64 23 31 
-1.01642 0.246898 6.1927 60 20 28 
-0.514944 0.194532 5.70533 78 32 42 
-0.392981 0.182375 5.58589 64 22 32 
-0.148561 0.166203 5.40703 147 100 111 
-0.803048 0.236345 5.76653 111 101 109 
-0.227158 0.206152 5.57751 82 36 46 
-0.829832 0.26679 5.73975 152 143 148 
-1.82444 0.416296 7.35656 83 62 83 
-0.832603 0.281952 5.74106 84 67 57 
-0.828384 0.284409 5.73646 127 111 96 
0.809961 0.163108 4.82539 71 42 67 
0.767629 0.175311 4.84262 70 53 71 
-0.852015 0.304847 5.77059 89 82 89 
-0.823465 0.302564 5.7422 70 62 77 
-0.869741 0.313813 5.7747 142 131 125 
0.923934 0.178921 4.69543 90 62 85 
-0.858596 0.327107 5.83666 116 99 81 
-0.798686 0.316519 5.72814 184 178 164 
1.1428 0.161115 4.47754 149 138 161 
-0.77179 0.324314 5.72511 135 126 119 
-2.12743 0.520466 7.66246 68 59 80 
0.965785 0.197962 4.6325 111 85 109 
-0.633729 0.330392 5.68255 171 157 144 
-0.839057 0.343893 5.75363 137 129 106 
-0.639245 0.351331 5.68652 154 141 133 
-0.477048 0.344207 5.6586 96 45 54 
-0.423505 0.339446 5.60771 77 34 44 
-0.392752 0.336587 5.58418 68 27 35 
-0.923996 0.395712 6.09501 71 24 35 
-0.119595 0.331484 5.47615 78 33 43 
0.762576 0.256366 4.8474 66 43 64 
-0.156663 0.38385 5.50794 74 31 43 
-0.930065 0.478716 6.09144 80 31 43 
-2.20462 0.666049 7.70261 98 88 106 
-1.9912 0.67744 7.48235 45 44 68 
-2.04349 0.689371 7.53402 38 27 63 
-2.03647 0.690674 7.52508 132 125 185 
-1.99017 0.68618 7.48343 108 131 191 
-2.05982 0.708261 7.55325 27 37 75 
-1.96784 0.704295 7.45239 10 22 64 
-2.0492 0.71988 7.55677 152 153 213 
-1.97679 0.710092 7.46077 159 183 246 
0.695343 0.470631 4.88225 82 59 81 
1.14435 0.425317 4.45558 138 126 138 
-2.01759 0.768565 7.49668 162 172 224 
-2.03019 0.772655 7.48624 40 25 81 
-2.02023 0.770802 7.47473 32 53 115 
0.838009 0.489413 4.71922 74 118 215 
0.837575 0.502844 4.71784 77 122 213 
0.821899 0.517808 4.71176 69 114 210 
-2.05741 0.824175 7.52507 42 55 118 
-1.98073 0.816743 7.45009 31 53 126 
-2.06132 0.825849 7.53063 119 122 163 
-2.07184 0.83062 7.52478 73 59 90 
-1.96551 0.8247 7.45936 92 107 155 
-2.05694 0.836393 7.5242 149 145 202 
-2.07501 0.849809 7.54514 35 40 58 
-2.03814 0.861755 7.499 98 78 124 
-0.855573 0.668675 5.73648 122 136 181 
-2.04699 0.864212 7.49772 26 18 42 
0.83106 0.578582 4.71056 81 123 214 
0.831671 0.580324 4.70599 91 130 218 
-1.99198 0.864319 7.45644 33 36 57 
-0.0666988 0.600603 4.98859 89 49 64 
0.156032 0.57721 4.76609 70 34 46 
-1.79796 0.776774 6.64118 69 47 53 
-1.74291 0.773747 6.60851 62 32 37 
-0.243661 0.634344 5.14632 105 54 70 
0.0367677 0.605317 4.86571 84 37 52 
-0.57592 0.668301 5.46148 90 47 61 
-0.517974 0.664047 5.41538 90 43 58 
-0.79687 0.693849 5.68692 77 40 52 
-1.13272 0.727979 6.00575 84 36 50 
-1.63581 0.778764 6.48599 67 40 53 
-0.246728 0.64299 5.15073 138 91 105 
-0.179233 0.646638 5.08412 75 42 58 
0.0914322 0.617166 4.79956 69 37 52 
1.2533 0.585559 4.31202 127 100 107 
-0.738984 0.70541 5.6237 89 47 64 
0.865393 0.63709 4.70212 66 51 79 
-1.77544 0.815985 6.62207 106 104 115 
-1.45777 0.839254 6.31341 69 34 48 
-0.350676 0.737939 5.25092 90 44 57 
-0.181133 0.722527 5.07801 86 42 56 
-0.73891 0.77836 5.61607 86 43 57 
-1.18818 0.825303 6.05848 101 50 71 
0.967273 0.771965 4.59481 65 52 76 
-0.647625 0.751159 4.53628 153 112 132 
-1.90242 1.20363 7.3573 43 33 43 
-1.75359 1.19066 7.1954 47 31 43 
0.940994 1.12039 4.57416 121 117 144 
1.09187 1.12384 4.41871 91 66 85 
0.755883 1.17615 4.74318 119 105 118 
0.888607 1.24458 4.50018 86 67 89 
1.16482 1.2234 4.19364 69 52 62 
1.293 1.21125 4.06908 41 31 57 
1.18881 1.2308 4.18401 46 44 63 
1.28944 1.22114 4.0839 154 180 238 
1.28961 1.21861 4.07158 164 182 242 
1.18542 1.23662 4.17389 146 185 243 
1.19084 1.23638 4.16933 166 187 248 
1.19164 1.23861 4.15665 80 67 147 
1.2989 1.23736 4.06033 71 70 148 
1.17659 1.25461 4.19075 22 28 66 
1.29158 1.24127 4.05362 135 147 209 
1.2519 1.28889 4.12552 172 186 252 
1.23913 1.28812 4.1067 163 183 246 
1.17172 1.32161 4.18563 56 38 58 
1.31189 1.31369 4.03712 59 39 81 
1.15905 1.33633 4.19501 49 28 41 
1.32432 1.32507 4.0233 32 34 46 
1.27316 1.33435 4.05699 138 158 223 
1.30374 1.34731 4.05272 38 23 58 
1.20522 1.35911 4.15749 87 114 161 
1.20595 1.35871 4.15134 136 157 206 
1.21085 1.36446 4.16527 25 39 70 
-1.63167 1.37667 4.73539 70 49 135 
-1.66356 1.38332 4.743 41 49 123 
1.1631 -1.59989 4.63664 66 56 77 
0.262875 -1.47926 5.50981 93 65 88 
0.716928 -1.53845 5.07349 86 67 95 
0.212011 -1.39895 5.56588 96 81 107 
0.211882 -1.37549 5.56357 98 78 102 
0.799958 -1.44228 4.97007 87 70 100 
-1.25974 -1.1533 6.98893 102 71 86 
0.748344 -1.40532 5.01803 91 64 90 
0.212217 -1.31466 5.5547 92 63 81 
-1.40415 -1.08381 7.1248 77 56 66 
0.184707 -1.27771 5.57179 63 49 68 
0.534341 -1.31114 5.23977 121 105 124 
0.947829 -1.36378 4.82857 113 83 107 
-1.04742 -1.10699 6.79163 45 34 58 
-1.06381 -1.08076 6.77987 64 50 72 
-1.06899 -1.06545 6.77546 71 60 76 
-1.22123 -0.984972 6.94136 100 71 89 
-1.26701 -0.920334 6.96778 100 74 94 
0.678744 -1.15106 5.08471 106 98 115 
-1.25989 -0.901038 6.96217 134 111 124 
-1.7078 -0.841894 7.40162 59 44 58 
-2.06694 -0.796948 7.75834 36 27 45 
0.777517 -1.14999 4.98588 58 38 52 
0.760903 -1.14378 4.99195 121 102 115 
-1.59218 -0.849009 7.28841 75 53 67 
0.302079 -1.07577 5.43584 110 97 124 
-0.469768 -0.91388 5.5805 141 94 110 
0.298197 -1.0589 5.44135 86 60 82 
-0.980264 -0.837261 6.09157 76 39 53 
-0.617861 -0.874099 5.72483 62 31 43 
-0.534838 -0.881224 5.64281 141 84 98 
0.868833 -1.11355 4.88601 122 105 124 
-0.465742 -0.881067 5.59011 136 83 105 
0.755691 -1.08223 4.99861 93 73 96 
-1.60144 -0.780734 7.29363 53 49 63 
-1.37933 -0.805476 7.0753 77 57 64 
-0.588231 -0.82479 5.69608 78 40 52 
-2.11401 -0.628169 7.76806 124 115 136 
-2.06445 -0.627321 7.71204 139 125 141 
0.674731 -0.935221 5.0572 132 112 131 
1.15537 -0.991599 4.5899 62 49 69 
0.873509 -0.953561 4.85677 76 57 83 
0.5893 -0.916781 5.14251 95 63 84 
-1.49365 -0.655722 7.16892 56 36 52 
-1.54755 -0.645332 7.21113 58 42 65 
-1.54896 -0.637817 7.218 127 115 132 
-0.85839 -0.688705 6.13436 67 31 38 
0.28523 -0.845539 5.40653 143 131 153 
-0.806994 -0.669926 6.07237 83 42 50 
-0.793844 -0.6695 6.06043 61 28 36 
0.291845 -0.828572 5.42188 118 94 114 
-1.25281 -0.583216 6.51175 64 37 47 
0.282594 -0.767064 5.41651 120 98 114 
-1.48853 -0.547328 7.14331 69 55 68 
0.688581 -0.79568 5.01317 83 60 79 
-0.72671 -0.60116 5.99099 75 37 49 
-1.48248 -0.492288 7.13629 56 45 65 
1.04037 -0.792821 4.68531 143 129 146 
0.469976 -0.722037 5.23803 138 122 143 
-1.80813 -0.446852 7.43303 122 98 122 
-1.81255 -0.443558 7.44028 72 58 80 
0.701557 -0.745401 5.02999 81 63 84 
0.247801 -0.685372 5.45989 128 108 125 
0.70777 -0.738698 5.00295 80 63 91 
0.290205 -0.686907 5.43622 106 83 103 
0.784554 -0.745674 4.92693 89 71 95 
1.3382 -0.810448 4.3751 88 70 95 
-1.26363 -0.496482 6.92483 107 88 107 
0.643366 -0.721357 5.0753 79 58 85 
0.369692 -0.682588 5.33024 125 102 121 
-0.87159 -0.499893 6.12544 81 39 51 
-0.564258 -0.518399 5.81395 67 32 38 
-0.628529 -0.487054 5.89695 108 68 76 
0.625386 -0.621531 5.0658 101 73 96 
-1.42505 -0.337214 7.05324 69 52 61 
-1.25089 -0.340478 6.50635 77 44 56 
1.14037 -0.603189 4.55922 69 56 74 
-0.725635 -0.271984 5.93891 60 27 26 
-0.72202 -0.272477 5.93543 117 90 81 
-0.729351 -0.270216 5.94219 65 25 30 
-0.732981 -0.262275 5.94486 150 134 113 
-1.36078 -0.172933 6.99022 73 50 68 
-0.684967 -0.242668 5.90843 75 53 47 
-0.761071 -0.230811 6.0469 89 69 55 
-1.91031 -0.0912609 7.51359 120 97 117 
0.589436 -0.360465 5.08884 151 128 147 
-1.91117 -0.0734396 7.50909 118 94 116 
0.875609 -0.387227 4.81351 132 125 143 
-0.69943 -0.184733 5.91996 198 183 157 
-1.94976 -0.0187966 7.51466 99 76 98 
-0.75089 -0.156346 5.99818 143 127 115 
-0.800416 -0.12557 6.00911 148 120 108 
-0.994194 -0.0991647 6.18105 72 33 42 
-0.799621 -0.120227 6.013 145 120 108 
-0.948123 -0.101629 6.13152 71 33 45 
-2.18042 0.0556532 7.75297 63 55 77 
-2.19336 0.065655 7.76318 78 76 100 
-0.809374 -0.0820452 6.0279 159 141 127 
-0.820983 -0.0661109 6.02124 156 133 120 
-0.797874 -0.0676925 5.90836 207 197 171 
0.682414 -0.215386 4.99322 76 53 63 
-0.817812 -0.046598 6.02247 171 153 139 
