ply
format ascii 1.0           { ascii/binary, format version number }
comment made by Greg Turk  { comments keyword specified, like all lines }
comment this file is a cube
element vertex 1300
property float x
property float y
property float z
property uchar red
property uchar green
property uchar blue
end_header
-3.29346 -1.85609 9.83554 76 76 114 
0.525513 -1.21875 6.70745 73 48 67 
-2.59913 -1.6723 9.26628 87 64 86 
1.47372 -1.04992 5.91747 105 94 104 
0.553645 -1.17558 6.66608 69 48 71 
1.08076 -1.04188 6.26217 54 31 49 
-3.30877 -1.62453 9.83944 70 74 116 
-2.31974 -1.48971 9.01634 70 46 60 
-2.46928 -1.37146 9.12256 60 48 67 
-0.0137269 -0.969033 6.47377 124 77 88 
-0.482595 -0.97277 6.80002 75 31 46 
-0.407962 -0.963606 6.74625 77 37 49 
-0.609295 -0.977106 6.89424 64 27 38 
-3.8529 -1.42339 10.0783 44 62 106 
-3.87319 -1.41665 10.1023 85 118 163 
-0.578681 -0.965801 6.88716 73 28 42 
-3.86118 -1.39645 10.0614 48 82 132 
-3.77284 -1.3887 10.0784 38 42 69 
1.18499 -0.77769 6.12074 63 46 62 
1.11716 -0.771981 6.18712 75 54 84 
1.02475 -0.750901 6.26672 68 53 74 
1.01344 -0.73144 6.28083 82 72 96 
0.732282 -0.723946 6.47182 113 108 130 
-2.272 -0.958456 8.88232 53 36 54 
-3.23018 -1.04055 9.67976 88 69 94 
-2.75081 -0.914716 9.28126 66 40 56 
1.03008 -0.55385 6.24383 118 117 133 
-2.82811 -0.827059 9.35927 57 43 61 
-0.728422 -0.518055 7.15914 101 65 69 
-0.0757164 -0.346824 6.79421 65 25 33 
-2.84575 -0.431031 9.27339 116 104 126 
-0.546406 -0.322172 6.95634 65 24 32 
-2.21771 -0.283608 8.82125 123 99 115 
-0.815521 -0.214968 7.17294 137 122 106 
-3.74308 -0.280751 9.96275 119 127 166 
2.62575 -0.0822255 5.76294 104 113 163 
-0.400007 -0.0784908 6.8253 73 37 40 
-0.470579 -0.074686 6.88044 68 28 36 
-0.860794 -0.0681779 7.22571 133 113 95 
-0.900547 -0.0342106 7.25071 142 116 104 
-0.33569 -0.0320981 6.77486 66 25 31 
-0.815725 -0.0294457 7.15258 188 177 157 
-1.17035 -0.00841788 7.42887 62 22 30 
-0.68233 0.00692229 7.14008 189 177 151 
-0.81884 0.00711778 7.134 146 140 118 
-0.841 0.0107532 7.1249 190 181 156 
-0.682115 0.0227574 7.13795 194 186 157 
-1.20647 0.0416871 7.48623 69 29 38 
-0.856137 0.0500003 7.12214 192 181 161 
1.67446 0.0492695 5.62612 70 47 67 
-0.851701 0.0681866 7.10675 190 183 164 
-0.851828 0.0807077 7.10775 162 151 138 
-0.674097 0.0803966 7.10763 187 173 143 
-0.848373 0.108644 7.10038 211 206 191 
-0.642114 0.118784 7.06764 171 157 131 
-0.650502 0.140805 7.04742 158 142 119 
-0.661251 0.15395 7.02617 156 135 118 
-0.347741 0.153745 6.77202 72 28 41 
1.46519 0.133583 5.78171 52 38 55 
-0.820139 0.164338 7.03497 206 192 165 
1.46376 0.138182 5.78431 45 34 53 
-0.798732 0.169218 7.02607 214 207 184 
-0.685155 0.168904 7.03622 125 102 88 
-0.675336 0.16905 7.0402 180 168 141 
-0.688743 0.178682 7.02083 168 157 137 
-0.805748 0.181963 7.04283 179 166 140 
-0.774616 0.189477 7.03825 106 86 72 
-0.789232 0.191711 7.0321 161 144 120 
-0.750749 0.196297 6.98245 164 152 130 
-2.77564 0.32327 9.18717 68 56 79 
-0.447871 0.270677 6.83948 72 24 30 
-1.0951 0.329698 7.376 77 32 39 
-0.719062 0.338748 7.09439 195 182 152 
-0.334521 0.347617 6.75295 69 21 33 
-0.504355 0.363206 6.90035 78 28 40 
-1.03505 0.411658 7.31068 72 28 38 
-0.13156 0.382568 6.76106 63 20 27 
-1.20689 0.424526 7.43904 81 33 43 
1.22857 0.33956 5.94458 79 57 79 
-0.868665 0.406644 6.91414 109 103 109 
-0.894104 0.415793 6.93656 184 180 171 
-0.867939 0.418957 6.90838 177 179 169 
-0.781093 0.43331 6.89313 136 119 119 
-0.886253 0.442541 6.89508 211 207 201 
-0.816604 0.452765 6.89773 195 190 177 
-0.828907 0.463328 6.87541 108 103 110 
-3.76632 0.67139 9.88234 34 42 81 
-0.700089 0.501184 6.93206 156 150 130 
-0.712175 0.503195 6.92745 101 80 72 
-0.862378 0.499761 6.86423 114 112 116 
-0.639641 0.50912 6.84972 109 90 90 
-0.815618 0.518592 6.86841 126 121 105 
1.18071 0.454868 5.98582 63 46 62 
-0.596036 0.53844 6.83356 178 169 163 
-0.61286 0.546331 6.82801 189 182 171 
-0.491731 0.554905 6.86407 69 23 30 
-0.449229 0.551987 6.82297 65 21 31 
-0.571165 0.56757 6.86209 88 63 66 
-1.0859 0.614353 7.33219 63 18 32 
-1.19401 0.625644 7.42607 71 24 32 
-0.580932 0.583022 6.8599 110 96 97 
1.16773 0.508465 5.9749 83 70 96 
0.425427 0.543272 6.13644 85 50 73 
0.48418 0.536531 6.06462 57 33 41 
-0.388636 0.649178 6.7584 81 32 38 
-2.69348 0.982886 9.03477 39 43 78 
-2.77267 0.99676 9.09025 54 46 84 
-2.75574 0.999044 9.07784 128 133 189 
-2.70044 0.994904 9.03581 119 140 206 
-3.76634 1.10683 9.82617 65 60 100 
-2.6679 1.02569 8.99238 147 175 236 
-3.76886 1.12689 9.83307 48 49 89 
-2.67438 1.04937 8.99266 33 46 106 
-2.77831 1.06646 9.07658 61 63 115 
-2.73046 1.0926 9.01622 159 164 212 
-2.66474 1.09953 9.01483 42 43 78 
-2.73183 1.11563 9.02081 153 170 227 
-2.66387 1.13635 9.001 50 50 84 
-2.78052 1.15337 9.06236 37 40 97 
-2.78511 1.16085 9.06653 51 53 107 
-3.76557 1.27274 9.77832 99 108 149 
-2.68072 1.17635 8.99211 135 162 226 
-3.79339 1.28954 9.77637 86 91 120 
-3.77811 1.29115 9.80142 46 44 81 
-2.81007 1.20348 9.06214 50 54 79 
-3.77251 1.31062 9.83288 71 69 108 
-2.6877 1.2055 8.97132 130 152 209 
-2.76305 1.22268 9.05875 122 111 161 
-2.69658 1.2125 8.97939 120 129 181 
-2.77618 1.23098 9.06939 43 34 71 
-2.78504 1.2389 9.07678 36 40 65 
-2.2096 1.08436 7.85067 53 28 37 
-1.81293 1.05132 7.58345 89 43 56 
-1.725 1.06646 7.49999 74 30 41 
-3.77717 1.40939 9.78993 38 55 94 
-4.42685 1.62952 10.3462 88 102 151 
1.32215 0.921512 5.79754 75 61 84 
-3.78498 2.04097 9.7817 47 41 74 
-3.80585 2.08302 9.72596 33 32 53 
-3.91577 2.07366 9.66671 66 88 125 
-3.85793 2.25204 9.44783 74 84 95 
-4.39462 2.27466 9.46774 92 128 121 
-3.48412 2.24683 9.21026 153 176 210 
-3.12282 2.09949 7.79953 101 111 102 
-1.4325 1.49461 5.54567 93 46 63 
1.7633 1.6451 5.19668 28 33 65 
1.77027 1.65414 5.19502 133 173 234 
1.88067 1.63583 5.09123 46 54 124 
1.75232 1.6779 5.20882 29 47 90 
1.91757 1.65526 5.07171 97 110 188 
1.92249 1.65972 5.06521 121 145 204 
-1.89516 1.82341 5.48785 166 166 222 
-1.78598 1.81978 5.46396 103 76 178 
1.83952 1.709 5.12562 38 66 142 
1.84272 1.71432 5.11902 131 157 221 
-1.77253 1.81318 5.39329 189 194 250 
1.74731 1.75482 5.19947 53 34 47 
1.73558 1.77777 5.22094 46 30 46 
1.77739 1.79498 5.1719 16 25 75 
1.80032 1.79228 5.15703 55 48 129 
1.78605 1.80383 5.16982 103 121 167 
1.78531 1.81382 5.19499 19 35 55 
1.90013 1.77855 5.08901 36 63 137 
0.685071 1.75749 4.97138 163 165 188 
0.656974 -2.00785 6.69668 82 65 84 
0.825723 -1.93641 6.55752 119 105 127 
-4.85798 -3.07242 10.4717 131 127 184 
0.830863 -1.91964 6.55233 73 51 74 
-0.636979 -2.23434 7.64668 94 91 74 
-0.622565 -2.22699 7.63336 134 131 116 
-0.5939 -2.21501 7.61021 87 85 75 
-1.09931 -2.35777 8.1376 55 44 63 
-0.571161 -2.20481 7.60958 119 108 91 
-1.14976 -2.34396 8.17233 112 103 124 
-1.13615 -2.31368 8.15023 57 43 61 
-1.14276 -2.30227 8.1465 70 54 71 
-1.57564 -2.34064 8.41556 60 55 83 
1.1038 -1.74138 6.28869 93 71 91 
0.276033 -1.90853 7.00626 81 58 81 
0.319154 -1.88945 6.9532 82 66 95 
-0.494042 -1.88165 6.98965 98 43 63 
1.70311 -1.54888 5.81344 60 46 68 
-1.91074 -2.33191 8.77692 101 82 104 
1.70065 -1.54396 5.81367 77 58 85 
2.48035 -1.5698 5.93693 59 54 89 
-4.93435 -2.78628 10.6061 113 113 167 
-1.30794 -2.14966 8.29595 112 100 122 
-1.29117 -2.14582 8.28089 73 61 87 
-2.50667 -2.33561 9.24269 78 54 66 
-0.530855 -1.73541 7.07736 86 39 54 
-1.16007 -1.83584 7.50447 70 37 57 
-0.402828 -1.68729 6.99262 84 41 53 
-0.24936 -1.65791 6.86882 139 82 90 
-2.4894 -2.19715 9.25397 75 60 89 
0.188029 -1.65972 7.01997 86 61 82 
0.589042 -1.5749 6.6853 93 67 92 
-4.88676 -2.4676 10.524 110 110 164 
0.051703 -1.6715 7.15287 87 67 89 
0.705307 -1.50063 6.6296 62 47 66 
-2.49572 -2.05643 9.21817 81 64 82 
-0.529962 -1.50032 6.75316 83 49 60 
-4.58512 -2.28142 10.5159 122 123 177 
-0.716643 -1.52077 7.06125 65 35 45 
-4.60348 -2.20905 10.4744 115 116 173 
0.377472 -1.43967 6.85601 109 97 113 
-2.32808 -1.89145 9.06606 76 56 74 
-2.11 -1.85609 8.89448 132 119 137 
1.69497 -1.20151 5.75987 98 66 87 
1.19894 -1.2739 6.18617 96 76 90 
1.32474 -1.24039 6.0602 61 50 67 
1.06985 -1.27973 6.28121 103 94 110 
1.18756 -1.24974 6.18312 112 91 112 
-1.76487 -1.70985 8.62623 92 71 92 
1.21217 -1.20644 6.1713 76 51 72 
-2.11324 -1.71361 8.87573 61 43 56 
-3.28848 -1.85468 9.8265 76 76 114 
0.524142 -1.21912 6.70953 69 45 63 
-2.60384 -1.67406 9.27585 80 59 78 
0.568308 -1.20156 6.6794 96 84 107 
1.07322 -1.03822 6.23728 75 51 65 
-3.31291 -1.62643 9.8495 71 84 129 
-2.32243 -1.48866 9.01453 70 46 59 
-2.20738 -1.43248 8.92955 87 64 83 
1.66243 -0.87769 5.75975 93 74 96 
-1.66374 -1.27823 8.49366 127 98 111 
-0.41552 -0.996394 6.75796 63 28 43 
-3.31741 -1.41038 9.79952 109 128 173 
-0.578859 -0.967097 6.88289 84 40 52 
-2.68141 -1.2478 9.29462 73 52 62 
-1.09512 -0.931652 7.33335 101 60 69 
1.1857 -0.777332 6.1312 63 46 59 
1.09839 -0.779603 6.2105 73 58 76 
1.1205 -0.774615 6.19816 79 65 88 
-3.28804 -1.16907 9.75127 103 91 126 
-2.71772 -1.11019 9.29472 63 45 54 
-2.7991 -1.05005 9.36392 120 104 114 
-3.23527 -1.04483 9.69482 89 72 93 
0.681617 -0.696 6.5121 82 67 88 
-2.80774 -0.916676 9.36555 51 35 52 
-0.733015 -0.640646 7.19351 73 30 40 
-1.97218 -0.723188 8.66565 70 46 68 
-0.592898 -0.469839 7.05223 54 23 35 
-2.03636 -0.507254 8.71506 52 41 61 
-2.24691 -0.469401 8.85784 69 48 59 
-0.0747947 -0.347973 6.80349 74 33 41 
-0.543853 -0.323398 6.97577 60 22 29 
-0.816171 -0.215722 7.18284 137 122 106 
-3.74512 -0.282761 9.97558 119 127 166 
-3.75829 -0.26941 9.98767 24 35 82 
-2.98689 -0.188092 9.39224 83 68 91 
-0.85981 -0.0689076 7.23519 136 114 100 
-2.2236 -0.0456197 8.79671 56 44 62 
-0.82017 0.00655825 7.10994 173 167 142 
-0.826655 0.0158334 7.11254 128 112 97 
-1.03661 0.0291449 7.35124 79 37 46 
1.04721 0.0282806 6.13146 83 60 76 
-0.645615 0.100228 7.06133 172 161 134 
-0.846414 0.107675 7.07102 212 206 190 
-0.641777 0.118558 7.08666 168 154 128 
-0.64888 0.142085 7.06324 160 147 121 
-2.98254 0.192227 9.34084 77 70 96 
-0.777146 0.154631 7.05662 166 160 146 
-0.819559 0.159673 7.05175 208 195 168 
-0.346365 0.153547 6.79252 74 28 39 
-0.800675 0.16921 7.04757 214 207 184 
-0.67406 0.168271 7.0374 180 168 141 
-0.452129 0.164205 6.87361 64 24 29 
-0.688452 0.177773 7.02824 163 152 132 
-0.772707 0.186469 7.01622 102 83 71 
-3.33537 0.264024 9.62041 70 83 123 
-0.73185 0.193113 7.0341 161 149 125 
-0.755285 0.195692 7.02444 162 150 128 
-1.04996 0.215901 7.35558 74 31 40 
0.0766593 0.228671 6.59231 137 87 98 
-0.447871 0.271786 6.85466 72 24 30 
-0.719896 0.337412 7.09748 190 179 150 
-0.711027 0.340664 7.10137 144 128 102 
0.130755 0.324192 6.57157 94 42 44 
-0.504278 0.362193 6.89237 82 32 44 
1.23035 0.340124 5.94692 79 57 79 
1.1953 0.35439 5.97864 78 56 73 
1.44417 0.343722 5.7983 80 61 81 
1.55388 0.343775 5.67409 99 75 97 
1.41468 0.353648 5.80145 70 53 70 
-0.784156 0.432912 6.90252 125 106 106 
-0.900379 0.44409 6.8961 157 147 149 
-0.860934 0.449158 6.89243 127 112 114 
-0.832868 0.450211 6.88338 198 196 182 
-0.824452 0.462243 6.88811 126 114 109 
-3.7867 0.67801 9.93783 33 41 83 
-0.699037 0.500697 6.92165 156 150 130 
-0.713516 0.503105 6.91613 100 79 73 
-0.943488 0.507846 6.94863 132 119 112 
-0.754622 0.520504 6.87968 69 54 64 
-0.602823 0.524233 6.85429 109 87 88 
-0.623039 0.53082 6.84731 157 147 146 
-0.647109 0.541343 6.81848 104 78 78 
-0.626027 0.543812 6.84733 191 182 173 
-0.344104 0.540695 6.74936 86 32 44 
-0.386304 0.545017 6.76884 65 19 29 
-0.449224 0.552554 6.83046 65 21 31 
-0.593179 0.556901 6.84642 131 119 113 
0.00798193 0.540432 6.65166 73 35 43 
-0.571268 0.569333 6.86919 88 63 66 
-1.08692 0.612317 7.32473 77 31 43 
-0.590944 0.569526 6.82065 57 29 34 
-1.14958 0.619746 7.37934 82 33 46 
0.481858 0.572168 6.06303 52 27 37 
-0.388479 0.648895 6.75578 81 32 38 
-1.60049 0.780824 7.92789 65 28 36 
-1.09018 0.722928 7.32537 79 33 43 
-2.78378 0.987593 9.10289 58 50 76 
-2.69215 0.982953 9.03469 39 43 78 
-2.77949 0.997923 9.10203 44 36 71 
-2.75915 1.00067 9.08711 121 122 176 
-2.70292 0.996449 9.04433 119 140 206 
-3.79709 1.09276 9.81966 80 78 109 
-3.79911 1.09787 9.84671 96 101 130 
-2.79577 1.01619 9.11625 34 45 89 
-3.75276 1.10821 9.7929 44 38 76 
-3.78023 1.12859 9.8533 33 31 66 
-3.78737 1.13222 9.80513 72 78 104 
-2.67792 1.05384 9.00002 43 63 126 
1.09871 0.72181 6.03351 73 55 78 
1.67816 0.664015 5.54657 118 107 121 
-2.74323 1.10351 9.02171 34 33 71 
-2.73426 1.12058 9.03093 159 178 235 
-2.66241 1.13486 9.00074 50 50 84 
-2.69342 1.15026 9.02589 17 33 99 
-2.78843 1.18378 9.06666 133 134 185 
-2.81812 1.1954 9.12446 48 40 78 
-3.81123 1.31212 9.84471 35 45 72 
-2.76998 1.21828 9.05785 98 88 139 
-2.69345 1.21116 8.99941 130 152 209 
-2.7042 1.21438 9.00958 120 129 181 
-2.7761 1.22958 9.06529 36 29 65 
-2.67829 1.2348 8.9749 31 35 62 
-0.934951 0.953097 6.88579 111 117 157 
-1.81265 1.05102 7.57577 85 40 54 
-1.40974 1.00942 7.23269 82 43 58 
-1.72985 1.06963 7.51638 67 27 36 
-1.81007 1.09808 7.57862 65 38 52 
-0.0842939 0.907561 6.20497 97 50 68 
-3.78066 1.45007 9.79888 34 50 87 
-0.626907 0.981207 6.63651 82 53 68 
-0.000634308 0.921184 6.13543 88 54 71 
0.925137 5.76016 38.1509 83 46 58 
1.03947 0.946552 6.02464 59 44 61 
-1.80704 1.1951 7.56586 87 50 67 
1.31246 0.923595 5.82913 91 68 88 
1.32664 0.923857 5.81353 75 61 84 
-0.383373 1.04935 6.42299 89 47 61 
-0.239695 1.03715 6.31757 81 43 58 
0.14833 0.99896 6.00935 95 46 61 
-3.80711 2.08218 9.72449 27 26 45 
1.00205 1.33846 6.0202 128 122 145 
-3.86196 2.25401 9.45509 74 84 94 
-4.41945 2.27366 9.4691 126 138 137 
-3.49376 2.25358 9.24143 153 176 210 
-1.94793 1.47777 5.97043 79 45 67 
1.74504 1.63625 5.213 64 44 54 
1.7674 1.64866 5.21211 29 25 46 
-2.04655 1.8698 5.89467 98 114 135 
-2.05525 1.87403 5.89703 113 114 133 
1.77061 1.65487 5.19493 133 173 234 
1.91414 1.6229 5.09 42 31 62 
1.73798 1.66959 5.22587 50 35 54 
1.79161 1.65969 5.18381 33 31 112 
1.90229 1.62765 5.08196 142 174 241 
1.75332 1.67869 5.21064 29 47 90 
1.92383 1.66101 5.06883 121 145 204 
-1.91016 1.82395 5.51551 51 41 82 
1.84036 1.70878 5.13109 18 39 119 
1.74719 1.7562 5.19914 41 24 39 
1.78341 1.80339 5.16653 87 107 151 
1.917 1.78413 5.05663 48 35 60 
0.82929 -1.91847 6.54443 72 53 76 
-0.622533 -2.23028 7.63258 154 148 128 
-0.558179 -2.20815 7.57029 79 69 56 
-0.59393 -2.20462 7.57394 83 84 72 
2.38475 -1.71886 5.93548 86 106 138 
0.627346 -1.94128 6.72182 76 60 73 
-1.12743 -2.34156 8.142 116 105 122 
-1.14822 -2.34437 8.17024 121 113 131 
1.11822 -1.79807 6.30488 73 57 75 
0.567239 -1.90691 6.75884 85 70 103 
1.10159 -1.74096 6.28544 94 71 91 
-2.40471 -2.50863 9.17194 96 78 90 
-2.01098 -2.42095 8.87227 93 75 94 
0.859066 -1.75831 6.51043 119 105 127 
-0.494067 -1.87379 6.95011 68 33 50 
-0.0308701 -1.90385 7.24755 133 106 120 
-1.32679 -2.1623 8.27444 86 71 92 
-1.30837 -2.15155 8.29274 101 89 112 
2.4762 -1.52703 5.91707 43 46 78 
0.329105 -1.79072 6.94631 67 49 70 
1.43795 -1.5317 6.0049 91 66 88 
1.4503 -1.52856 6.00417 56 31 55 
2.47595 -1.50181 5.91645 50 56 96 
1.13582 -1.57835 6.239 98 70 88 
-2.50791 -2.33323 9.23515 73 52 64 
-0.337867 -1.72072 6.87048 109 52 68 
-0.608613 -1.77433 7.14412 109 58 75 
-1.17383 -1.85217 7.4916 106 67 84 
1.92817 -1.3745 5.59902 141 111 132 
-0.423521 -1.68975 6.98548 95 50 66 
-2.80393 -2.28807 9.47058 81 61 78 
-0.251064 -1.65497 6.85353 123 66 75 
0.498511 -1.62043 6.78303 100 75 97 
-2.84226 -2.26627 9.4989 131 104 119 
0.58919 -1.57539 6.68612 93 67 92 
0.407535 -1.59634 6.80083 100 69 86 
1.42893 -1.39068 6.00633 106 97 121 
0.703725 -1.50025 6.61481 72 58 76 
-2.49385 -2.04601 9.18517 71 52 72 
-0.53312 -1.50081 6.75775 79 49 58 
1.44952 -1.30524 5.98777 73 58 78 
-4.60095 -2.27249 10.516 150 151 200 
-0.715884 -1.52423 7.06585 54 26 35 
1.44225 -1.28911 5.9706 86 81 100 
0.408757 -1.45235 6.82142 67 50 66 
-4.63459 -2.22942 10.5564 112 115 170 
-2.10641 -1.84933 8.86704 130 115 133 
0.594435 -1.38399 6.667 99 69 77 
-3.70943 -2.08522 10.0925 37 55 103 
0.214548 -1.44091 6.98284 81 71 90 
1.19983 -1.27609 6.19897 101 79 95 
0.177592 -1.3859 6.97011 49 31 39 
-1.75937 -1.70366 8.5958 92 71 92 
1.33236 -1.19928 6.06617 58 48 66 
-2.11009 -1.68773 8.844 71 55 76 
-3.27746 -1.85033 9.79348 91 90 126 
-3.0231 -1.8084 9.57072 74 65 88 
-2.60877 -1.67667 9.28788 86 72 89 
1.55125 -1.0572 5.87586 64 51 63 
1.46962 -1.0517 5.91746 98 80 92 
0.553115 -1.17847 6.6707 88 67 92 
-0.0579336 -1.19824 6.8816 76 35 49 
-3.29521 -1.62107 9.80152 80 84 125 
0.981557 -1.04147 6.33569 58 39 49 
-2.20836 -1.42476 8.92404 79 54 76 
0.961573 -1.01077 6.35619 88 59 69 
1.65506 -0.875336 5.74652 81 62 83 
-2.45161 -1.37769 9.08423 85 72 90 
0.660793 -0.991713 6.56409 108 82 102 
-0.184321 -1.02114 6.77506 53 29 39 
-1.65254 -1.26842 8.4404 128 102 113 
-1.83127 -1.25898 8.59812 76 58 71 
-0.608668 -0.978921 6.89506 71 33 45 
-0.578051 -0.964791 6.87376 84 40 52 
-0.505086 -0.948148 6.80972 61 29 39 
-3.77915 -1.39203 10.0693 35 41 64 
-2.67733 -1.24381 9.27438 73 52 62 
1.22435 -0.780819 6.11133 76 59 83 
-0.393725 -0.856194 6.79084 79 41 54 
-1.12326 -0.889378 7.2936 76 40 54 
-3.28105 -1.16652 9.73056 103 91 126 
1.02305 -0.751013 6.26515 82 69 87 
1.00995 -0.747757 6.265 119 111 128 
-1.92571 -1.00871 8.69967 62 51 65 
-3.73561 -1.15693 10.0375 43 60 107 
-1.15175 -0.80575 7.35355 66 36 51 
-3.24446 -1.04886 9.72785 100 85 104 
0.679296 -0.696228 6.51172 86 71 91 
1.69265 -0.596018 5.69123 78 62 75 
-2.74587 -0.912141 9.24496 71 53 65 
1.03032 -0.557153 6.24968 97 96 113 
-0.802587 -0.63715 7.21619 77 41 52 
-0.647372 -0.525067 7.08465 57 27 37 
-0.729034 -0.51909 7.16075 106 67 72 
-0.799777 -0.512072 7.22624 109 68 73 
-0.996712 -0.510761 7.37198 80 38 48 
1.3255 -0.333637 5.94933 126 121 136 
-2.24268 -0.469671 8.84126 69 48 59 
-0.546529 -0.325957 6.97937 55 25 27 
-1.5433 -0.317719 7.84325 89 63 72 
-0.799067 -0.222885 7.15327 64 32 35 
-0.816978 -0.216544 7.17933 126 109 99 
-3.75069 -0.269192 9.96769 24 35 82 
2.62082 -0.0823786 5.7598 112 119 167 
1.12443 -0.0657457 6.08777 81 59 80 
-0.877901 -0.0561123 7.21841 135 110 99 
-2.21699 -0.0449235 8.75857 52 44 62 
-0.895118 -0.0362402 7.23613 130 102 94 
-0.388172 -0.0314119 6.82089 72 33 38 
-0.337219 -0.0317105 6.79803 76 33 42 
-1.09863 -0.0157159 7.38538 71 40 48 
-0.163804 -0.0096249 6.81642 89 43 54 
-0.456744 -0.00734209 6.88851 62 29 36 
-0.681238 0.00883638 7.1318 189 177 151 
-0.921263 0.0116828 7.23366 133 105 102 
-0.830353 0.0143405 7.13344 145 132 115 
-0.681314 0.0167807 7.13275 202 192 165 
-1.03348 0.027443 7.3336 79 37 46 
-2.98863 0.0391387 9.34187 116 103 126 
1.04552 0.0261752 6.128 91 69 82 
-0.925117 0.0402529 7.2348 139 113 105 
0.0277332 0.0421983 6.68788 136 88 104 
-0.855798 0.0483522 7.09775 191 180 160 
1.67305 0.0496722 5.62528 76 51 68 
0.0655932 0.0844072 6.63096 85 42 51 
-0.000153549 0.0923099 6.70337 74 34 45 
-0.847577 0.108332 7.09122 204 197 181 
-0.641177 0.115477 7.05965 164 150 124 
-0.729254 0.125354 7.12865 43 23 17 
-2.57339 0.196026 9.03123 59 49 69 
-0.347609 0.153998 6.79436 85 39 49 
1.45147 0.137341 5.81952 76 58 73 
-0.78188 0.171033 7.06618 101 91 97 
-0.687772 0.176015 7.00883 157 146 128 
-0.774473 0.183887 7.03226 102 84 75 
-0.789115 0.190928 7.0319 167 151 128 
-0.730216 0.191236 7.03016 151 139 117 
-0.754814 0.194392 7.02006 162 150 128 
-1.51069 0.231524 7.88724 87 44 50 
-1.04882 0.214176 7.33405 74 31 40 
-1.09349 0.219962 7.40321 65 24 32 
0.0755627 0.227086 6.59586 135 85 96 
-2.77573 0.322766 9.20206 71 59 75 
-0.669751 0.272267 7.08946 108 92 76 
-0.393596 0.263163 6.79257 97 47 56 
0.109527 0.292692 6.56679 81 36 43 
-0.722709 0.335422 7.10092 181 168 139 
-1.45684 0.428498 7.73265 96 45 56 
-1.135 0.410189 7.39712 77 39 47 
-1.03343 0.408554 7.27987 91 47 57 
-0.134069 0.381917 6.75447 88 41 49 
1.17717 0.341555 6.00021 114 100 118 
-0.90228 0.402153 6.94298 124 111 109 
0.109909 0.383456 6.58919 87 41 44 
1.18949 0.352814 5.96772 86 60 73 
1.44052 0.342608 5.78762 87 69 87 
-0.155779 0.407636 6.77889 88 38 50 
1.41508 0.352483 5.80719 80 60 78 
-0.78421 0.433974 6.9242 134 115 114 
-0.89906 0.443146 6.89057 157 147 149 
-0.822126 0.443239 6.90885 124 118 120 
-0.863206 0.446987 6.8914 155 147 141 
-2.5215 0.585549 8.96421 59 55 76 
-0.815372 0.45407 6.91273 203 199 185 
-0.826222 0.460716 6.88289 130 119 117 
-0.702336 0.486449 6.93637 110 96 98 
-0.631197 0.483973 6.87127 182 174 166 
-0.895599 0.491066 6.89159 36 30 42 
-0.850516 0.50014 6.87603 92 92 102 
-0.713809 0.501881 6.90732 102 82 77 
-0.820463 0.51701 6.86478 121 116 109 
-0.755404 0.521446 6.89227 69 54 64 
-0.621439 0.518885 6.84276 114 94 92 
-0.803476 0.524733 6.87269 83 63 44 
-1.64661 0.607496 7.90772 101 50 62 
-1.77301 0.621944 8.05078 72 29 36 
-0.649203 0.540536 6.83426 112 90 83 
-0.34462 0.538746 6.73646 87 34 46 
-0.387717 0.543398 6.7524 80 32 40 
-0.566192 0.55603 6.86569 155 139 119 
-0.591902 0.556531 6.83166 131 119 113 
-0.62176 0.562619 6.84627 53 30 38 
-0.573215 0.566311 6.86403 81 56 58 
-1.08881 0.61337 7.34609 77 31 43 
-0.595448 0.570387 6.8315 54 28 35 
-0.580287 0.581812 6.86282 106 93 98 
1.16146 0.508713 5.96768 83 64 87 
-0.543569 0.593461 6.85163 63 36 43 
-3.78283 0.871841 9.80892 32 36 56 
2.64734 0.51862 5.65582 158 173 209 
-0.388134 0.649332 6.75988 90 40 47 
-1.60105 0.778457 7.92741 72 31 39 
-1.08987 0.723658 7.32743 79 33 43 
-1.97084 0.799437 8.0182 71 35 45 
-1.12017 0.737345 7.32577 121 72 79 
-2.6766 0.970909 9.01389 46 36 55 
-2.78117 0.988748 9.09439 46 40 66 
-2.75703 0.997168 9.07729 105 97 147 
-2.7019 0.993052 9.03541 105 113 173 
-2.65439 1.00717 9.00237 25 28 65 
-3.77849 1.12247 9.85097 36 33 63 
-3.78983 1.13137 9.81414 76 86 114 
1.09192 0.716593 6.01341 93 74 95 
1.67717 0.663443 5.54167 107 97 112 
-2.73429 1.08971 9.03373 160 174 225 
-2.75335 1.10653 9.04976 37 32 74 
-2.70664 1.09745 8.97312 53 69 122 
-2.6577 1.13134 8.98178 56 50 86 
-2.77815 1.17967 9.03842 133 134 185 
-2.68433 1.17678 9.00826 124 152 217 
-3.79881 1.28588 9.79712 86 89 120 
-2.81362 1.19355 9.10742 48 40 78 
-3.79673 1.29781 9.84462 63 68 103 
-3.78763 1.3045 9.79493 28 37 66 
-2.74976 1.21528 9.02264 142 138 187 
-2.70094 1.21074 8.98546 151 166 217 
-2.77395 1.225 9.03953 27 31 64 
-3.78941 1.33216 9.79924 83 106 136 
-2.68903 1.22052 8.97664 40 44 75 
-2.67746 1.22871 8.9693 27 32 57 
-0.861293 0.936557 6.8195 119 130 176 
-0.933839 0.948353 6.85582 113 100 135 
-3.76587 1.37176 9.79123 46 45 81 
-1.72291 1.06256 7.48646 83 38 48 
-3.78165 1.40612 9.80525 34 54 93 
-1.332 1.0283 7.18981 81 42 54 
-2.20994 1.12985 7.87139 72 50 56 
0.58966 0.841802 5.85584 54 33 35 
0.452042 0.832444 5.77624 79 39 46 
-2.25129 1.14246 7.90117 76 68 78 
-1.80429 1.09154 7.54897 71 40 54 
-0.541494 0.950794 6.56586 100 53 67 
-0.464629 0.944051 6.49728 85 44 59 
-0.157145 0.914321 6.2686 104 58 68 
0.304631 0.870684 5.89819 81 39 51 
-0.00331701 0.918816 6.12522 83 52 68 
0.147532 0.906586 6.02036 81 44 53 
-1.89341 1.17931 7.62181 80 44 50 
-2.21377 1.22767 7.88466 82 44 58 
-1.49157 1.13809 7.29119 93 46 64 
1.0421 0.946705 6.0338 69 51 70 
-1.80744 1.1918 7.56225 94 54 69 
1.3202 0.922127 5.80297 83 63 79 
-0.223616 1.01573 6.2996 75 37 50 
-0.240746 1.03598 6.3168 88 47 65 
0.992602 1.00391 6.05843 103 99 116 
-0.00331122 1.01822 6.13009 98 54 71 
0.147057 0.995126 5.99889 106 56 68 
0.387838 0.97454 5.8082 91 49 63 
1.42939 1.01934 5.70698 71 54 74 
1.01433 1.08856 6.03721 70 56 74 
-3.81464 1.98651 9.77156 72 84 108 
-3.76218 2.02505 9.71531 53 47 78 
-3.91199 2.0543 9.6844 92 119 150 
1.04304 1.29754 5.98508 112 112 134 
1.1259 1.29474 5.94433 112 115 139 
1.0121 1.34638 6.00538 82 71 97 
-0.797104 1.22529 5.35885 103 57 75 
-0.12954 1.37497 5.90324 77 39 56 
-0.439512 1.31072 5.5024 102 57 80 
-3.85714 2.24931 9.41378 63 72 80 
-3.62198 2.23053 9.14335 109 124 138 
-3.4796 2.23896 9.18378 156 179 211 
-3.52168 2.24422 9.18049 146 151 178 
-1.98717 1.47626 5.98638 79 39 58 
-3.3213 2.16579 8.42876 79 98 92 
1.42057 1.517 5.66 107 104 133 
-1.43413 1.4918 5.54032 95 50 65 
1.61699 1.51833 5.48461 81 56 69 
-0.842788 1.50039 5.32806 101 51 69 
1.35424 1.6658 5.55751 89 72 91 
1.74848 1.63848 5.21921 57 35 47 
-2.04576 1.86818 5.89377 98 113 136 
-2.05408 1.87061 5.89103 97 103 120 
1.76425 1.65498 5.20143 34 64 118 
1.77161 1.65578 5.1992 123 163 226 
1.7687 1.6483 5.17479 140 174 233 
1.7817 1.6553 5.19697 138 162 221 
1.73564 1.66614 5.22158 69 50 66 
1.90232 1.6251 5.08439 96 122 185 
1.78977 1.65856 5.18105 58 52 130 
1.90251 1.62345 5.07074 95 116 177 
1.88254 1.63844 5.10273 53 45 105 
1.94068 1.64594 5.05989 27 36 49 
1.91442 1.6517 5.06722 92 96 174 
-1.90751 1.81876 5.50393 60 46 74 
-1.89414 1.82045 5.48155 142 147 200 
1.84029 1.72111 5.12596 97 92 163 
1.74863 1.75563 5.20344 53 34 47 
1.73519 1.77726 5.22023 66 45 61 
1.94477 1.75069 5.05676 58 38 63 
1.77652 1.80715 5.18185 10 21 42 
1.91273 1.7774 5.0627 138 148 210 
1.8381 1.80212 5.09762 93 110 132 
1.45319 -1.78151 6.01358 45 32 50 
-0.591992 -2.23995 7.61233 131 105 106 
0.794574 -1.93649 6.57913 124 107 128 
0.833766 -1.92334 6.56309 71 53 75 
1.64075 -1.7148 5.8628 129 108 123 
-0.595595 -2.2082 7.59269 59 58 54 
-0.573194 -2.20883 7.61078 141 130 112 
0.0979343 -2.0823 7.1768 94 66 88 
0.626839 -1.94302 6.72596 76 60 73 
0.570949 -1.94841 6.7617 121 102 115 
2.39257 -1.71565 5.97038 116 127 157 
0.573881 -1.92019 6.79639 80 66 97 
-3.71836 -2.86159 10.2127 36 43 95 
1.13946 -1.75717 6.277 73 54 76 
1.10159 -1.74032 6.28544 94 71 91 
-2.00792 -2.41322 8.84952 88 70 88 
0.202794 -1.91667 7.06613 84 64 83 
-0.496361 -1.88654 6.99995 76 34 53 
-1.29063 -2.20644 8.30104 130 111 131 
1.60173 -1.56174 5.8948 48 38 57 
-0.0325557 -1.89653 7.22204 129 104 117 
0.0442988 -1.88481 7.18357 131 110 124 
1.44854 -1.52743 5.99405 59 37 59 
1.44245 -1.52932 6.01566 121 96 118 
-1.45921 -2.12462 8.37556 83 65 89 
-2.51641 -2.34138 9.27502 74 50 63 
0.526888 -1.71051 6.79299 89 65 83 
-0.319747 -1.70771 6.88281 116 66 76 
-0.298767 -1.69783 6.89879 103 51 60 
-1.15942 -1.83475 7.48913 68 38 57 
0.969803 -1.56471 6.40284 91 68 90 
-1.66936 -2.07152 8.56532 76 66 91 
-0.24988 -1.65462 6.8577 139 82 90 
-4.8595 -2.45007 10.4534 107 104 162 
0.710539 -1.48424 6.60123 87 66 85 
1.45463 -1.30768 6.00347 67 53 71 
-4.60881 -2.29821 10.57 117 117 169 
-4.61402 -2.27856 10.5361 135 136 185 
0.281347 -1.47028 6.92498 110 80 105 
-2.33051 -1.9014 9.09595 78 63 77 
-2.11864 -1.86247 8.92114 130 115 133 
0.404804 -1.42153 6.81358 61 46 64 
-3.74398 -2.10919 10.1981 34 40 92 
-1.71605 -1.75482 8.55733 59 43 56 
0.519624 -1.36185 6.75233 77 51 60 
-2.09793 -1.70199 8.88279 103 89 108 
-3.03866 -1.82445 9.64321 64 52 75 
0.573196 -1.22583 6.68527 89 62 79 
-2.61504 -1.67676 9.29728 86 72 89 
1.47246 -1.04626 5.93911 63 52 67 
-0.0567728 -1.20338 6.90694 74 33 47 
1.00927 -1.04128 6.29776 120 98 112 
-2.20288 -1.42356 8.90159 81 57 79 
-1.68674 -1.28254 8.49342 61 44 52 
-1.66585 -1.28154 8.52265 130 102 115 
-1.66862 -1.25852 8.48325 93 71 86 
0.499694 -0.984282 6.71103 95 64 77 
0.527045 -0.970876 6.68385 101 68 79 
-0.613612 -0.982959 6.94452 66 32 44 
-0.492709 -0.964922 6.83342 128 76 91 
-0.577752 -0.966611 6.87821 74 32 45 
0.785287 -0.903912 6.43409 100 74 99 
1.10698 -0.844961 6.20466 68 47 63 
0.548619 -0.894702 6.64135 122 94 111 
-2.68816 -1.24953 9.30843 73 52 62 
-2.32394 -1.19943 8.98262 86 69 87 
1.11565 -0.825478 6.18757 134 114 125 
1.32358 -0.800931 6.00573 115 94 110 
1.32265 -0.783261 5.9845 69 53 66 
0.471301 -0.871077 6.72392 112 80 90 
0.561504 -0.860745 6.64519 106 82 103 
-1.41122 -0.998876 7.76724 66 32 49 
1.22143 -0.779493 6.09672 81 69 91 
1.18388 -0.77869 6.11977 77 61 72 
-1.09801 -0.929211 7.3324 106 63 73 
-0.438586 -0.860934 6.79165 72 35 43 
-0.392775 -0.859104 6.80813 68 30 42 
1.09671 -0.781079 6.21168 89 69 86 
1.11981 -0.774355 6.18887 79 70 91 
-1.10371 -0.910771 7.34052 115 68 78 
1.01446 -0.751331 6.28072 118 111 127 
1.01448 -0.732076 6.28093 82 72 96 
0.0448684 -0.759511 6.5573 76 41 47 
-2.33985 -1.01517 8.93591 75 57 69 
-1.15818 -0.807563 7.39436 64 31 45 
-3.23412 -1.04553 9.68702 96 79 103 
-1.17972 -0.799879 7.41368 68 31 44 
0.680307 -0.69715 6.50801 92 81 101 
1.69083 -0.594455 5.68505 78 62 75 
-0.370953 -0.67859 6.80136 52 21 29 
1.03105 -0.556686 6.26174 110 109 125 
1.68022 -0.417096 5.68534 72 49 64 
-0.730884 -0.51997 7.15763 102 61 68 
-0.800045 -0.517885 7.25655 111 66 73 
-2.74806 -0.65491 9.23693 62 48 63 
-1.00121 -0.511572 7.39891 76 34 45 
-0.980427 -0.500523 7.38233 77 37 47 
1.21763 -0.356873 6.05848 81 59 73 
1.32994 -0.33621 5.96654 131 125 141 
-0.586101 -0.384296 7.03354 94 58 61 
-2.25324 -0.472935 8.88312 87 65 73 
-0.0768638 -0.345049 6.79843 68 28 37 
0.814766 -0.324781 6.3799 121 111 129 
-0.00446081 -0.334612 6.76042 65 30 36 
-0.54651 -0.328028 6.9787 55 25 27 
-0.0171099 -0.304288 6.73087 79 39 47 
0.510552 -0.281768 6.63082 87 60 67 
-3.21738 -0.404347 9.62027 95 78 94 
-3.17819 -0.403063 9.59295 82 68 78 
-0.800702 -0.223929 7.14125 62 29 35 
-0.86532 -0.174782 7.30925 82 59 43 
2.6189 -0.0828644 5.75297 112 119 167 
-0.836726 -0.0811024 7.22105 110 77 76 
-0.473624 -0.0736685 6.87295 70 33 40 
1.1245 -0.0644989 6.08801 73 54 74 
-0.857038 -0.0694986 7.23931 138 121 105 
-2.21853 -0.0487542 8.76852 53 40 51 
-0.898302 -0.036138 7.28039 136 111 99 
-0.811863 -0.0307476 7.12207 171 158 141 
-0.33591 -0.0305924 6.78615 66 25 31 
-0.507183 -0.0183691 6.91969 78 36 48 
-0.71797 -0.0109283 7.16349 130 115 99 
-0.820672 0.00388203 7.12086 173 166 144 
-3.02243 0.0401111 9.44448 116 103 126 
1.04863 0.0252507 6.13508 83 61 74 
0.143841 0.0775156 6.57057 78 35 44 
-0.0382044 0.0926403 6.75013 94 47 57 
-0.000153702 0.0923721 6.70887 74 34 45 
-0.655396 0.114482 7.06987 106 86 75 
-0.642577 0.114624 7.07498 164 150 124 
-0.73279 0.125212 7.1775 43 23 17 
1.19153 0.116905 6.02213 87 68 82 
-3.03296 0.185068 9.36748 68 52 67 
-2.99473 0.19207 9.39481 67 60 87 
-0.348221 0.152506 6.77851 90 44 53 
1.4648 0.136251 5.79069 47 34 52 
-0.802485 0.171884 7.03992 211 204 179 
-0.494251 0.168502 6.92129 81 36 43 
-0.399882 0.181559 6.86427 74 32 44 
-0.72933 0.192265 7.01458 161 149 125 
-3.32705 0.269174 9.60704 69 72 115 
-1.37163 0.217935 7.79388 74 37 47 
-1.44137 0.226254 7.85493 84 41 46 
-1.12635 0.213674 7.43157 89 43 51 
-1.52988 0.246185 7.93115 111 64 72 
-0.158176 0.234103 6.82032 64 26 36 
-0.66993 0.26992 7.08337 99 80 65 
-0.693964 0.287781 7.10232 113 97 79 
-0.68576 0.329254 7.10965 180 166 138 
-0.711502 0.337291 7.09994 145 130 104 
-0.435084 0.349088 6.87712 83 41 51 
-0.65389 0.365688 7.054 125 107 87 
0.111086 0.341219 6.57818 52 17 24 
-0.50673 0.364314 6.91458 89 37 50 
-1.61326 0.439081 7.97531 79 39 47 
-1.1393 0.413352 7.42512 69 33 42 
-0.848863 0.39272 6.9506 177 166 157 
-0.132176 0.383861 6.80241 90 39 46 
1.16183 0.338912 6.00496 77 60 73 
1.2845 0.336725 5.91195 96 75 92 
0.107007 0.383581 6.57987 74 32 33 
-0.869586 0.406958 6.9423 112 104 107 
-0.723138 0.418161 6.95539 160 144 134 
1.54934 0.341173 5.6621 106 81 100 
1.58829 0.338291 5.63686 103 76 91 
1.41203 0.351291 5.7972 81 60 77 
-1.33515 0.474354 7.72429 61 28 34 
1.40634 0.357874 5.81861 86 69 81 
-0.784302 0.431542 6.91864 125 106 106 
-0.821535 0.44078 6.90385 127 119 116 
-0.838041 0.448639 6.89738 193 192 180 
-1.58335 0.519396 7.92567 59 22 30 
-0.809931 0.451854 6.87874 196 194 182 
-0.825856 0.461774 6.90386 126 114 109 
-3.77749 0.675248 9.90497 37 51 92 
-0.702705 0.485365 6.92575 117 105 106 
-0.853124 0.502214 6.91463 57 55 67 
-0.834457 0.499536 6.90358 56 35 33 
-0.715384 0.503966 6.92248 112 94 88 
-0.824203 0.505284 6.89 73 50 49 
-0.749494 0.502583 6.87761 150 138 131 
-0.753765 0.519297 6.87734 69 54 64 
1.18028 0.454427 5.98405 75 57 72 
-1.77469 0.622028 8.07359 85 35 40 
-0.800448 0.529247 6.87131 76 54 38 
-0.653997 0.541772 6.8697 111 88 83 
-0.617015 0.542831 6.84132 205 202 192 
-0.346119 0.540825 6.73816 96 42 54 
-0.565403 0.555635 6.89104 154 142 121 
0.0744852 0.534795 6.61875 78 32 35 
-0.621313 0.561524 6.84134 73 45 49 
1.6983 0.460861 5.56923 82 62 88 
-0.594843 0.573498 6.88205 74 40 40 
-0.578167 0.582621 6.88875 107 96 104 
1.16553 0.509893 5.98535 83 66 90 
0.484047 0.536769 6.08792 67 37 46 
-3.79415 0.874762 9.83557 32 36 56 
0.234956 0.596125 6.47229 92 44 53 
0.304082 0.58833 6.39183 89 38 43 
2.46933 0.549024 5.65784 65 69 107 
-1.6016 0.779945 7.94241 64 27 34 
-1.97585 0.800074 8.02807 84 44 53 
-2.67856 0.971969 9.02367 46 36 55 
-2.69347 0.979153 9.03574 58 56 77 
-2.76053 1.00246 9.08877 121 122 176 
-2.70898 0.998585 9.04956 129 144 212 
-3.8025 1.09131 9.84115 86 92 124 
-2.79786 1.01138 9.11767 34 44 72 
-2.77963 1.03176 9.05849 116 110 156 
-2.68165 1.03 9.03398 154 180 244 
-3.77595 1.12851 9.75698 60 61 88 
1.08462 0.722212 6.03563 126 124 139 
1.68021 0.662603 5.5441 117 105 120 
-2.65386 1.13097 8.97809 67 54 84 
1.12169 0.787876 5.99138 84 63 79 
-2.7612 1.22005 9.07266 150 160 213 
-2.71695 1.21592 9.03875 156 173 230 
-3.80733 1.32634 9.82228 79 92 118 
-2.79045 1.2318 9.0932 27 31 64 
-0.913525 0.93881 6.84811 86 66 98 
-1.96134 1.0667 7.7142 84 50 61 
-1.02599 0.978193 6.97103 94 51 65 
-0.861629 0.955043 6.81074 125 137 186 
-2.04136 1.09388 7.76098 93 54 63 
-0.634334 0.93901 6.66295 96 54 68 
-0.244815 0.894868 6.30353 101 54 65 
-1.33296 1.02729 7.1904 95 50 60 
-3.78394 1.40707 9.8089 35 52 93 
-0.942431 0.99475 6.90245 86 46 56 
0.452031 0.832138 5.77625 96 51 58 
-0.544312 0.952945 6.58321 96 49 63 
-2.09095 1.13265 7.80118 105 75 77 
0.462981 0.84311 5.77748 106 73 84 
-0.625532 0.980645 6.65776 83 48 60 
0.226723 0.876073 5.93756 52 27 33 
0.306831 0.872359 5.90542 74 34 43 
1.14787 0.884573 5.99097 85 64 74 
-0.355383 0.685239 4.5754 133 87 100 
-0.00397062 0.916929 6.12114 83 52 65 
0.146714 0.904519 6.01287 81 44 53 
0.385655 0.881013 5.81171 78 49 63 
0.863454 0.960172 6.15647 122 113 137 
-1.84643 1.19267 7.55995 74 37 45 
-1.41268 1.14958 7.25287 110 61 77 
1.30989 0.92174 5.81097 91 68 88 
-1.95871 1.24842 7.64748 88 53 63 
-0.383996 1.05443 6.45279 89 47 61 
-0.347995 1.04377 6.38507 104 56 68 
0.987449 0.990941 6.06559 51 31 47 
-0.192228 0.719269 4.38319 79 37 46 
1.44213 0.944002 5.71499 73 58 82 
-0.00396328 1.01338 6.10311 100 57 74 
0.0343761 1.01514 6.11933 103 52 64 
0.200007 1.76788 10.6569 95 48 54 
0.390092 0.976284 5.8233 92 46 61 
-0.767519 1.13387 6.73333 99 52 69 
-0.379312 1.09786 6.44107 109 58 68 
1.43531 1.02046 5.71628 59 49 68 
1.16485 1.14334 5.88719 115 105 132 
-3.81922 1.93266 9.71135 41 39 53 
-3.8074 1.97166 9.74254 75 85 114 
-3.77642 2.01275 9.74178 75 72 106 
-3.74765 2.01654 9.66719 39 35 66 
-3.82255 2.06444 9.75007 52 53 73 
-3.93386 2.06763 9.73862 91 117 148 
-3.94289 2.08841 9.74545 57 77 111 
1.04863 1.29957 6.00269 118 120 141 
1.06714 1.29501 5.98006 119 119 142 
1.1506 1.27696 5.88978 71 56 78 
1.12575 1.29337 5.93375 115 118 142 
1.00385 1.33961 6.02731 122 117 141 
-0.796382 1.22593 5.36509 100 54 72 
-3.79195 2.24695 9.67216 116 99 117 
-0.129431 1.3736 5.89992 77 39 56 
-1.94583 1.42266 5.97441 73 41 57 
-4.40907 2.26702 9.44958 112 134 132 
-4.40223 2.27299 9.47292 81 113 117 
-3.4426 2.25073 9.33215 41 43 59 
-3.50072 2.23185 9.13279 160 168 196 
2.47706 1.36238 5.52488 98 124 149 
-0.867192 1.34643 5.34497 107 55 76 
-3.31821 2.16424 8.4223 66 85 78 
-0.870232 1.38507 5.34381 111 60 75 
1.06023 1.54832 5.94153 58 42 59 
-0.701074 1.40257 5.35426 138 94 112 
-0.704388 1.41432 5.35548 93 44 57 
0.273998 1.56249 5.83914 81 39 53 
1.42113 1.51726 5.65985 115 112 140 
-1.43535 1.495 5.54829 108 60 76 
2.47292 1.50978 5.57779 93 100 130 
-0.77509 1.4688 5.33423 110 65 87 
1.615 1.51648 5.4759 81 56 69 
-0.784873 1.4988 5.33216 100 51 68 
-0.0187952 1.68553 5.91264 96 59 73 
0.899219 1.73142 5.91028 58 56 74 
1.35631 1.66598 5.55411 82 66 85 
1.76049 1.64422 5.19676 22 21 40 
-2.04713 1.867 5.88815 78 90 116 
1.77372 1.65681 5.20695 103 142 204 
1.91904 1.62242 5.09077 47 33 50 
1.79644 1.66004 5.18783 59 40 114 
1.89597 1.63195 5.09722 124 155 214 
1.90498 1.62629 5.07867 107 135 198 
1.75353 1.6758 5.21478 12 20 46 
1.88128 1.63912 5.1007 53 45 105 
1.75122 1.68349 5.19822 107 119 167 
1.91912 1.65627 5.05736 130 156 218 
-1.6697 1.81417 5.47281 135 170 239 
-1.66139 1.82322 5.47929 44 49 101 
-1.66324 1.8086 5.43045 171 170 241 
-1.60486 1.81652 5.45091 91 99 122 
1.84295 1.70987 5.10952 131 164 228 
1.84215 1.72304 5.12521 48 27 105 
1.93593 1.74415 5.03511 47 27 55 
1.93447 1.75697 5.06435 136 143 207 
1.78762 1.80202 5.17163 114 142 195 
1.90115 1.77987 5.10262 15 27 83 
1.91201 1.7795 5.08043 138 162 222 
1.95586 1.76164 5.02955 21 23 32 
1.9183 1.78228 5.05516 37 20 59 
0.125803 -2.08196 7.12221 94 70 86 
2.3793 -1.70991 5.94471 84 93 124 
0.522118 -1.93166 6.77831 106 82 103 
-1.14647 -2.32183 8.18109 48 38 60 
0.540817 -1.91464 6.75645 130 119 144 
-3.70473 -2.85143 10.1729 37 52 100 
1.10145 -1.7442 6.30322 86 62 84 
-2.00628 -2.41484 8.85355 88 70 88 
-0.487514 -1.89261 6.9373 72 41 57 
-0.140269 -1.99152 7.31988 100 75 98 
-2.0819 -2.39073 8.89382 80 62 80 
1.68851 -1.55886 5.8274 103 81 104 
-1.91203 -2.32439 8.78747 88 75 96 
-0.0350938 -1.89444 7.20302 125 98 113 
1.27459 -1.5937 6.13256 108 83 97 
1.7071 -1.49579 5.78646 75 59 85 
1.23602 -1.58565 6.17027 98 77 93 
1.17675 -1.5948 6.22467 88 66 85 
0.578541 -1.711 6.7203 78 61 80 
1.45157 -1.52927 6.00661 59 37 59 
1.43376 -1.52493 6.00763 127 103 126 
0.238939 -1.76974 6.98558 99 75 96 
-0.342614 -1.71611 6.85595 116 56 74 
-0.327033 -1.72728 6.96317 119 70 81 
-0.303297 -1.69561 6.90306 93 43 50 
1.41584 -1.46304 6.00846 83 61 74 
1.40246 -1.45866 6.00915 98 71 86 
-0.421878 -1.68785 6.97501 80 36 53 
-2.81697 -2.29138 9.50135 81 68 85 
-0.249642 -1.65296 6.85265 139 82 90 
1.20453 -1.48583 6.19903 90 74 90 
-2.49722 -2.21296 9.29536 82 69 91 
-4.85885 -2.47172 10.4683 186 204 245 
0.409822 -1.60744 6.85596 106 76 92 
1.42995 -1.37729 5.97282 57 48 67 
1.22347 -1.42475 6.20026 86 62 81 
1.05544 -1.38895 6.31018 121 107 131 
-0.712163 -1.52459 7.04826 50 24 33 
0.855199 -1.38475 6.4451 87 63 76 
0.323361 -1.46074 6.87598 97 68 90 
0.408086 -1.45335 6.82798 71 54 70 
0.379227 -1.44249 6.85942 110 97 114 
-2.32576 -1.89429 9.0618 79 62 79 
1.6889 -1.19925 5.73934 100 72 90 
0.202796 -1.45062 6.99758 73 46 59 
0.588674 -1.3821 6.66344 98 67 73 
-3.71624 -2.08878 10.1013 44 66 113 
2.443 -1.194 5.86176 40 45 75 
0.520607 -1.3637 6.7532 85 56 61 
1.32009 -1.22647 6.06628 112 93 113 
0.171004 -1.39299 6.99209 44 24 30 
1.13844 -1.23828 6.21945 83 62 77 
1.32911 -1.19965 6.06594 58 47 64 
-2.08977 -1.69476 8.84248 101 86 107 
-2.11487 -1.69191 8.86441 70 51 75 
-3.2732 -1.84532 9.77634 76 76 114 
-2.80153 -1.66762 9.40274 87 78 100 
0.54893 -1.17734 6.66656 91 68 91 
-3.2796 -1.61385 9.75211 80 84 125 
1.00456 -1.03922 6.2881 107 86 99 
0.980079 -1.04396 6.34388 69 48 59 
-2.20821 -1.42699 8.91955 89 66 86 
0.957639 -1.00655 6.32141 88 59 69 
1.65775 -0.878605 5.76574 87 69 91 
1.59697 -0.874669 5.79676 118 99 121 
0.502949 -0.989335 6.72036 93 63 73 
1.74084 -0.828094 5.6834 87 72 89 
0.345801 -0.972749 6.70919 116 69 86 
1.5523 -0.83159 5.82539 117 105 126 
-0.508967 -0.947577 6.81124 52 24 34 
-0.401925 -0.937034 6.73249 132 88 101 
-0.326142 -0.950632 6.84471 56 26 33 
-3.83836 -1.38573 10.0261 34 62 102 
0.552468 -0.898398 6.6473 111 84 100 
1.31758 -0.797975 5.99248 114 96 112 
0.333352 -0.871735 6.66259 65 33 39 
1.32203 -0.784691 5.99228 68 54 67 
1.22235 -0.778975 6.10127 76 59 83 
1.18182 -0.778006 6.12887 70 49 62 
1.09495 -0.779448 6.21094 76 59 76 
1.1171 -0.774806 6.17842 86 77 96 
-0.341675 -0.848539 6.8465 71 35 41 
-1.12373 -0.891 7.31476 71 36 50 
1.00097 -0.763251 6.26558 69 50 59 
1.02017 -0.74979 6.23877 89 76 94 
-1.11381 -0.875931 7.32153 111 69 79 
1.00882 -0.74679 6.25549 119 111 128 
1.01075 -0.73349 6.26728 100 91 112 
0.0423119 -0.759868 6.56056 82 45 50 
-3.2264 -1.04816 9.68223 93 78 97 
2.44892 -0.616917 5.79231 79 96 122 
1.68722 -0.592836 5.68963 66 50 61 
-2.84645 -0.894852 9.36583 72 51 69 
1.02536 -0.59754 6.27016 74 61 79 
-0.729131 -0.641026 7.16569 72 32 37 
-2.82312 -0.831236 9.35849 55 43 56 
-0.733932 -0.554484 7.10907 71 35 45 
-0.63941 -0.494824 7.06685 59 25 28 
-0.995724 -0.506611 7.34587 85 43 53 
-0.976937 -0.496703 7.32802 66 37 46 
-0.616653 -0.445765 7.04989 97 58 61 
1.31756 -0.33174 5.97147 91 75 95 
-0.584672 -0.382855 6.98526 84 46 48 
-0.00706321 -0.335061 6.72943 69 34 41 
-0.548794 -0.329438 6.99748 55 25 27 
-0.0171079 -0.303282 6.74366 79 39 47 
-2.23825 -0.282762 8.75059 62 50 67 
-0.805117 -0.226301 7.1724 58 27 32 
-0.875881 -0.190088 7.26808 52 24 27 
-0.713659 -0.186375 7.12077 53 32 34 
1.05513 -0.124549 6.14156 70 45 51 
-0.83503 -0.0798323 7.19867 110 77 76 
-0.473566 -0.072309 6.89712 68 28 36 
1.1236 -0.0644925 6.0875 73 54 74 
-0.853694 -0.0711227 7.17298 134 106 102 
1.94276 -0.0435386 5.41281 116 93 114 
-2.22333 -0.0535905 8.76973 51 40 52 
-0.391464 -0.0260789 6.82094 58 29 34 
1.11478 -0.0127575 6.08905 130 109 127 
-0.161605 -0.0102534 6.85537 84 38 49 
0.413501 -0.00418647 6.00528 89 44 49 
2.00253 0.0132133 5.3985 106 73 90 
1.11502 0.0178529 6.11567 118 101 119 
1.04911 0.0225302 6.13335 85 63 76 
0.0282196 0.0402859 6.66806 134 86 102 
1.68241 0.0467332 5.61645 114 100 116 
1.67029 0.0508585 5.61828 76 51 68 
1.6606 0.0593085 5.64276 135 119 130 
0.14125 0.079059 6.56491 73 33 41 
-0.0371346 0.0962106 6.70942 74 35 40 
1.18591 0.117042 6.0091 91 74 87 
-2.09877 0.162201 8.01732 88 39 46 
0.881464 0.128993 6.28494 66 55 70 
-0.804668 0.169224 7.02808 195 183 157 
-0.782012 0.17163 7.06221 101 91 97 
-0.677831 0.168943 7.02712 162 144 124 
-2.70861 0.226588 9.11702 47 38 61 
-0.494591 0.17077 6.90167 74 33 41 
-0.793126 0.185978 7.01961 161 146 118 
-0.401165 0.180225 6.81281 82 39 49 
-1.37122 0.22151 7.78601 75 39 50 
-2.52018 0.295212 8.93477 74 55 68 
-1.53847 0.260882 7.89377 84 46 50 
-0.65191 0.254759 7.0898 72 56 41 
0.111772 0.291336 6.57042 68 27 35 
-0.690074 0.333866 7.15436 191 178 145 
-0.712127 0.336711 7.10618 145 130 104 
0.126668 0.330317 6.57502 70 24 27 
-0.688153 0.366721 7.07928 191 179 155 
-0.33514 0.347728 6.72073 79 32 42 
1.02899 0.317358 6.12311 82 59 76 
-0.506166 0.361333 6.84834 107 57 68 
-0.909816 0.380189 7.02464 115 85 92 
-0.885599 0.387017 6.9588 165 158 167 
-0.861341 0.390788 6.9319 146 137 135 
-0.133714 0.380455 6.75057 78 31 37 
1.15973 0.339725 6.01359 69 53 68 
-0.836676 0.39669 6.94336 119 109 105 
1.70865 0.317887 5.5644 66 54 68 
-0.871363 0.405724 6.92878 126 116 121 
-0.842286 0.404504 6.90382 106 97 91 
-0.881319 0.415558 6.9252 187 186 180 
1.16666 0.360567 6.00285 91 78 103 
1.59119 0.340573 5.6521 106 80 94 
-0.154547 0.41145 6.7743 76 32 45 
1.18215 0.366595 6.01271 115 112 130 
1.41481 0.354992 5.81753 85 65 80 
-0.900742 0.455361 7.03629 214 209 199 
0.403761 0.419617 6.34821 63 22 27 
-0.899127 0.493593 6.90213 59 53 67 
-1.10276 0.531025 7.36133 70 31 41 
-0.838936 0.495842 6.87647 44 30 31 
-0.829158 0.500802 6.88112 60 37 38 
-0.751146 0.501655 6.87692 146 134 129 
-0.751326 0.521906 6.87861 54 40 52 
-0.605146 0.521934 6.86205 120 96 90 
-1.77983 0.624707 8.07406 72 29 36 
-0.597317 0.554724 6.83157 130 118 119 
-0.565306 0.558871 6.87929 155 139 119 
0.00319684 0.541207 6.61342 71 39 47 
-0.597415 0.569834 6.83275 61 34 39 
-0.397922 0.563062 6.75829 88 39 47 
1.16413 0.509498 5.98971 83 64 87 
-3.75842 0.843086 9.76215 76 83 116 
-0.545399 0.595194 6.88913 64 37 40 
0.426865 0.543771 6.13174 85 50 73 
0.420814 0.577937 6.11075 69 40 55 
-0.388313 0.655754 6.76793 72 26 33 
-1.97485 0.799081 8.004 70 37 46 
-2.75686 1.00026 9.09538 110 110 163 
-2.77027 1.02007 9.05025 118 121 174 
1.30075 0.691126 5.85506 71 57 81 
1.07558 0.721388 6.0231 131 128 145 
1.09345 0.71921 6.02186 82 66 88 
1.12934 0.72388 6.0202 116 115 134 
-2.74991 1.10569 9.02809 32 33 67 
-2.72539 1.1099 9.05926 18 29 78 
-2.63155 1.11789 8.90292 67 54 84 
-2.81531 1.20024 9.10741 51 45 77 
-2.7909 1.23133 9.09507 27 30 63 
-3.79776 1.33388 9.8069 86 103 133 
-0.937129 0.957077 6.87637 124 111 147 
-3.7629 1.37502 9.79312 40 43 73 
-1.63542 1.05331 7.41914 95 47 60 
-0.853805 0.974257 6.78948 94 56 70 
0.13821 0.860727 6.00118 80 41 53 
-1.79894 1.0874 7.54393 68 40 51 
0.448914 0.832844 5.76414 77 38 44 
-2.08064 1.12336 7.74843 92 61 66 
-0.459172 0.938709 6.47655 92 48 61 
0.463945 0.845224 5.78955 106 73 84 
-0.33123 0.518284 3.51625 85 50 62 
0.22594 0.87542 5.93736 63 30 34 
-0.509007 0.981824 6.55303 133 87 100 
0.382441 0.878868 5.8073 77 47 61 
-4.43308 1.62804 10.3615 95 109 158 
1.03571 0.94749 6.02815 60 44 59 
-1.8062 1.19594 7.57387 83 47 64 
-1.41479 1.15313 7.2588 108 59 78 
1.31289 0.924864 5.83079 83 62 83 
-0.697578 1.06161 6.66145 86 42 56 
-0.776466 1.08999 6.73739 95 56 74 
0.961663 0.980816 6.04671 80 57 68 
-1.96438 1.2524 7.68074 93 55 66 
-0.270502 0.73174 4.47894 91 55 70 
0.981513 0.989487 6.05712 57 35 48 
1.43246 0.941577 5.69648 103 78 95 
-0.00626828 1.01707 6.11645 101 59 80 
0.262036 1.77426 10.6821 95 46 61 
0.00297442 1.06018 6.10966 108 57 72 
1.43421 1.02012 5.72048 63 49 69 
1.44902 1.04757 5.69426 88 67 90 
0.995673 1.12014 6.03258 105 105 133 
1.17285 1.15273 5.92011 117 112 138 
1.58386 1.08743 5.58128 107 100 116 
1.974 1.0274 5.27877 91 61 73 
-3.80156 1.92777 9.64829 25 31 46 
-3.7987 1.96477 9.71448 79 82 113 
-3.84196 2.077 9.82453 73 77 104 
-2.07997 1.31798 6.09216 76 41 56 
1.05013 1.30166 6.00711 101 106 130 
-3.93792 2.11311 9.69816 123 136 166 
1.12489 1.2919 5.9253 128 129 151 
1.56358 1.22106 5.58381 60 46 72 
0.271285 1.2869 5.85804 76 37 49 
-0.251945 1.27395 5.74425 86 42 55 
1.58142 1.2324 5.55799 72 55 73 
-0.382414 1.24859 5.56873 112 60 70 
-0.796272 1.22708 5.36868 100 54 72 
0.141331 1.36755 5.9453 64 30 35 
0.395407 1.34196 5.742 91 45 53 
-3.84734 2.24258 9.40422 62 71 80 
2.49968 1.32078 5.49246 62 80 122 
-3.63658 2.23713 9.17512 90 110 125 
2.45932 1.35732 5.50366 80 104 130 
-1.40706 1.37289 5.54976 86 50 67 
2.45703 1.35575 5.4801 106 127 156 
0.998693 1.48666 5.9696 44 30 38 
-0.866226 1.34214 5.32695 114 65 85 
-0.279943 1.46445 5.69987 98 47 70 
-0.768668 1.38192 5.34509 116 67 80 
1.06219 1.5509 5.94818 54 40 60 
-0.716273 1.41378 5.34361 100 56 76 
1.39669 1.51038 5.6556 64 50 72 
1.27554 1.53727 5.74161 116 88 109 
1.33012 1.543 5.73506 65 51 80 
1.57283 1.50903 5.51324 101 95 112 
1.74358 1.48519 5.41307 89 92 110 
1.61363 1.52008 5.48297 74 55 68 
-0.84573 1.50094 5.32393 85 45 64 
1.35325 1.66527 5.54729 84 68 87 
2.70347 1.69595 5.6243 78 81 101 
1.421 1.67463 5.47107 81 69 87 
1.75619 1.64534 5.19753 16 19 31 
1.92189 1.609 5.05793 52 35 49 
1.91118 1.61951 5.08001 54 41 63 
1.73688 1.66816 5.22172 50 38 58 
1.79604 1.66286 5.18848 30 21 103 
1.89683 1.63412 5.10306 134 161 220 
1.74498 1.66781 5.19912 19 20 41 
1.74873 1.68452 5.1986 112 110 143 
1.93553 1.6422 5.0538 17 24 35 
1.90996 1.64669 5.05652 112 117 191 
1.92796 1.6542 5.07403 22 30 78 
1.92483 1.66425 5.0757 130 156 218 
-1.91086 1.81825 5.49915 49 36 62 
-1.9292 1.82577 5.50304 57 52 79 
-1.67688 1.8205 5.49008 162 192 253 
-1.8949 1.82334 5.48863 166 166 222 
-1.6576 1.82021 5.46808 55 48 99 
1.83263 1.7152 5.13805 156 175 244 
1.84383 1.71188 5.11555 131 164 228 
1.74477 1.75853 5.19845 44 25 41 
1.94125 1.75281 5.04905 30 15 47 
1.77084 1.80461 5.17185 11 21 42 
1.87341 1.75911 5.03995 15 26 72 
1.95156 1.76053 5.02672 15 21 31 
1.91711 1.78233 5.07544 134 141 196 
1.90534 1.77225 5.02428 37 20 59 
0.221568 -2.03655 7.06296 97 76 96 
2.38032 -1.71252 5.93394 96 112 146 
1.13025 -1.78977 6.30448 83 70 88 
-0.215018 -2.09329 7.39258 85 65 87 
0.991138 -1.70647 6.39727 79 58 77 
1.70229 -1.55038 5.81153 53 42 64 
-1.91221 -2.32186 8.78842 89 73 96 
-0.0933099 -1.88059 7.26527 97 70 87 
1.48715 -1.5462 5.979 35 29 41 
1.71733 -1.50366 5.80935 62 50 74 
-0.323594 -1.72791 6.87178 160 106 122 
