ply
format ascii 1.0           { ascii/binary, format version number }
comment made by Greg Turk  { comments keyword specified, like all lines }
comment this file is a cube
element vertex 1279
property float x
property float y
property float z
property uchar red
property uchar green
property uchar blue
end_header
-0.938233 -1.37077 5.0733 60 46 69 
1.59241 -1.23372 4.57283 127 120 137 
-1.95596 -1.41837 5.27082 93 70 96 
-1.79587 -1.41067 5.25192 101 88 100 
-0.930587 -1.35706 5.05583 89 75 94 
1.38477 -1.2334 4.62319 54 36 50 
0.798019 -1.23233 4.72035 98 74 91 
1.3877 -1.18241 4.61956 72 49 70 
0.793691 -1.20187 4.7313 71 55 81 
-1.20575 -1.24251 5.12226 93 64 85 
-0.0452058 -1.08395 4.46854 64 33 45 
0.0325033 -1.08334 4.4655 149 95 109 
-0.0238755 -1.07237 4.47479 78 28 42 
-0.515752 -1.08995 4.5741 71 34 48 
-1.4707 -1.22348 5.16914 80 67 80 
-1.63245 -1.20649 5.19009 79 57 71 
-1.78583 -1.21293 5.22245 60 37 57 
1.26498 -1.06494 4.62637 73 50 66 
-2.26279 -1.20788 5.31331 47 33 51 
1.26094 -1.0449 4.6263 132 116 136 
0.883233 -1.05623 4.70411 102 81 107 
1.16093 -1.04295 4.6609 70 38 56 
0.711997 -0.974592 4.72163 118 86 101 
0.794873 -0.962449 4.71388 105 78 102 
-0.456464 -0.952143 4.68049 69 33 41 
1.29573 -0.921091 4.62838 61 43 63 
-2.24606 -1.04555 5.28484 145 130 148 
1.7044 -0.866292 4.53228 72 54 73 
1.28379 -0.872033 4.62899 79 69 87 
1.3674 -0.86308 4.59865 61 48 66 
1.39677 -0.861071 4.59006 82 62 89 
1.30265 -0.864161 4.61729 74 62 86 
0.94998 -0.849435 4.67025 130 126 147 
1.20023 -0.839412 4.63269 94 85 108 
0.904903 -0.833636 4.67861 87 74 97 
-1.49405 -0.910888 5.14881 63 47 60 
-0.472134 -0.774469 4.67449 63 28 36 
-0.227899 -0.762072 4.62759 110 69 77 
-0.446278 -0.760614 4.65964 76 33 42 
-1.9095 -0.852352 5.23201 118 95 119 
-1.91118 -0.846661 5.22413 85 65 92 
-1.9725 -0.829529 5.2301 54 40 65 
1.83555 -0.694554 4.49637 62 53 70 
-0.975681 -0.665819 4.77108 71 38 51 
0.307018 -0.606163 4.62173 71 34 43 
0.833525 -0.55853 4.67774 112 81 98 
-0.273097 -0.546549 4.60944 142 121 106 
-0.285613 -0.539206 4.61741 147 134 115 
-0.368344 -0.52677 4.67364 55 26 33 
1.49779 -0.511219 4.55141 73 56 75 
-0.367619 -0.514752 4.66423 84 63 49 
-2.0526 -0.523471 5.23727 126 103 123 
-0.250987 -0.430271 4.60836 184 171 152 
-0.367319 -0.428396 4.63494 145 126 112 
-0.619656 -0.41163 4.66822 67 28 35 
-0.556911 -0.41001 4.65284 67 34 41 
-0.284108 -0.401151 4.59303 218 212 190 
-0.253989 -0.378906 4.62662 154 132 101 
-0.326098 -0.359103 4.56571 196 181 158 
-2.42528 -0.402935 5.30526 74 70 95 
-0.195675 -0.347306 4.62732 203 192 165 
1.31077 -0.334741 4.58267 81 53 76 
-0.309043 -0.315156 4.54852 220 209 187 
-0.188874 -0.31339 4.60866 209 200 169 
-0.178863 -0.309539 4.60891 158 147 129 
-0.194872 -0.307384 4.60832 156 135 116 
0.421246 -0.304568 4.5746 143 97 110 
-0.405014 -0.306808 4.62807 99 64 57 
1.30179 -0.295088 4.56506 142 122 134 
-0.306422 -0.268898 4.53897 190 175 152 
-0.274974 -0.265384 4.54116 208 197 177 
-0.280862 -0.255582 4.54057 179 167 143 
-0.257644 -0.250757 4.549 222 215 189 
-0.269565 -0.244482 4.54986 153 131 110 
-0.261175 -0.243922 4.54158 211 201 174 
-0.0123364 -0.23828 4.54421 77 34 43 
-0.237534 -0.234613 4.54273 108 85 67 
-0.235704 -0.224863 4.54554 156 138 116 
1.82328 -0.220197 4.47111 124 112 135 
1.81671 -0.213264 4.46922 75 52 71 
1.36868 -0.195338 4.56306 90 69 84 
1.28738 -0.192207 4.57027 81 61 87 
1.62478 -0.16553 4.50834 59 45 63 
0.0763165 -0.159967 4.52861 81 31 42 
0.0271617 -0.15911 4.54063 77 30 38 
-0.25116 -0.158911 4.6114 120 98 74 
-0.611086 -0.157631 4.6648 67 26 34 
-0.561347 -0.157621 4.65606 69 27 36 
0.407304 -0.110146 4.50843 105 49 67 
-0.0242272 -0.0944776 4.55029 65 21 36 
-0.507957 -0.0919447 4.64916 63 20 32 
0.404563 -0.0894061 4.49961 141 96 107 
-0.260413 -0.0803835 4.46072 194 182 175 
-0.299035 -0.0725607 4.45811 130 116 115 
-0.273413 -0.0687429 4.4513 111 101 109 
-0.295165 -0.0649414 4.45823 196 192 183 
-0.280905 -0.0408384 4.4168 159 147 150 
-0.292368 -0.0341672 4.41606 181 177 174 
-1.93188 -0.0326573 5.18831 92 69 87 
1.35782 -0.0283499 4.55327 125 114 132 
-0.284711 -0.0256935 4.41627 83 69 58 
-0.273229 -0.0238336 4.41694 97 79 65 
1.45387 -0.0244856 4.53172 89 63 84 
1.36094 -0.0101802 4.55049 133 126 141 
1.59838 -0.0106934 4.51684 84 62 83 
-0.28086 -0.00678913 4.41616 84 78 92 
1.83144 0.0027814 4.45779 155 143 167 
-1.23798 0.0052932 4.89773 69 23 31 
-0.131505 0.0103228 4.49697 201 195 181 
-0.145188 0.0122783 4.4968 185 177 166 
-0.129604 0.0149576 4.49849 211 201 189 
-0.232344 0.0159821 4.4433 134 125 120 
-0.228488 0.0159767 4.44347 123 111 99 
-0.137373 0.0209474 4.49656 134 114 105 
-0.0806601 0.0266626 4.4963 110 93 99 
-0.113675 0.0478592 4.4875 159 149 140 
0.0192315 0.0483589 4.5363 99 49 58 
0.0860548 0.0481293 4.52319 80 35 42 
0.115496 0.0500233 4.52069 74 28 38 
-0.0923796 0.0556809 4.49584 53 32 41 
1.59743 0.0563085 4.48662 145 124 140 
0.379426 0.0584426 4.5741 76 31 40 
0.81296 0.0771883 4.40128 107 67 86 
1.34856 0.0962286 4.54208 80 69 95 
1.37827 0.125218 4.52291 147 127 139 
-1.34494 0.138976 4.78558 64 32 42 
-2.53395 0.161984 5.29119 110 99 123 
-2.22952 0.194532 5.23011 52 41 66 
-2.00944 0.195467 5.18451 128 113 124 
-2.14932 0.201041 5.21207 49 51 71 
-2.22549 0.206868 5.24198 62 45 77 
-2.25804 0.209235 5.24347 29 42 67 
-2.21087 0.209839 5.2291 162 165 225 
-2.24874 0.224584 5.2431 40 43 93 
-2.12138 0.228632 5.22138 22 23 60 
-2.13038 0.234338 5.21015 161 187 248 
-2.23385 0.248772 5.22961 62 63 125 
-2.13497 0.248082 5.21027 30 46 114 
1.27701 0.246297 4.54052 94 72 95 
-2.18625 0.284619 5.21365 167 173 231 
-1.94683 0.284312 5.17394 65 48 68 
-2.17918 0.289326 5.21297 33 52 114 
-2.19316 0.291685 5.21386 35 23 86 
-2.11755 0.313175 5.19523 31 34 77 
1.21975 0.29677 4.56266 93 66 88 
-2.12208 0.340172 5.19526 92 107 158 
-2.25763 0.357458 5.21611 33 38 61 
-2.10797 0.355391 5.19395 27 19 34 
-2.20899 0.372813 5.21377 128 118 170 
-2.21825 0.375155 5.21422 23 17 41 
1.4585 0.324731 4.48533 72 116 210 
-2.14235 0.377985 5.18411 34 37 59 
-2.22736 0.386897 5.21424 30 34 62 
-1.47455 0.350662 4.63664 68 38 44 
-1.11102 0.347763 4.56001 82 39 53 
1.46452 0.346582 4.48583 82 122 215 
0.93774 0.333376 4.17302 63 27 40 
1.4572 0.358156 4.48132 77 120 210 
-1.03593 0.366511 4.56101 80 34 44 
-0.966715 0.365321 4.55274 81 39 59 
1.4649 0.36065 4.48699 91 125 215 
-0.253658 0.359765 4.40982 74 37 51 
-1.02932 0.373632 4.55818 113 67 74 
0.0335515 0.356556 4.35027 71 37 50 
0.0994493 0.355842 4.33693 87 44 58 
0.38424 0.354427 4.29479 91 48 58 
0.449991 0.354177 4.28046 94 47 62 
-2.07897 0.432735 5.189 88 66 79 
0.737066 0.350914 4.21888 52 26 36 
-1.2501 0.385498 4.59724 80 47 59 
0.800696 0.351082 4.1966 74 36 49 
0.177984 0.372682 4.32012 91 54 71 
0.789222 0.364522 4.20354 87 41 53 
1.23258 0.412873 4.5514 64 51 69 
1.96559 0.399346 4.39789 132 105 115 
1.47777 0.413238 4.50841 76 56 76 
-1.46142 0.440464 4.63994 57 32 39 
0.314785 0.423107 4.29013 107 57 69 
-0.889641 0.450244 4.52295 104 50 63 
0.31662 0.426806 4.28972 79 42 54 
-0.177915 0.443907 4.38582 82 42 59 
0.303707 0.438091 4.29175 90 42 55 
0.656623 0.434492 4.22081 97 44 57 
1.25273 0.671977 4.53118 121 122 141 
0.74419 0.656934 4.17659 61 32 42 
1.57621 0.862249 4.45397 124 121 148 
1.34898 0.897088 4.48422 106 93 110 
-0.679695 0.706244 3.48576 92 48 65 
0.743294 0.86764 4.17168 66 38 52 
0.2106 0.733096 3.44205 120 65 86 
1.56626 0.975811 4.37744 88 70 92 
1.93035 0.982274 4.2854 54 34 47 
1.94683 0.989013 4.2848 34 33 56 
2.07935 0.985463 4.25087 141 151 215 
1.95163 0.995504 4.27893 142 182 241 
1.96038 0.996313 4.28177 153 174 236 
1.94716 0.996653 4.27733 112 157 220 
1.91904 1.00305 4.28506 57 40 57 
2.10952 0.999517 4.24833 29 36 53 
2.0899 1.0038 4.24974 71 67 147 
2.09183 1.00988 4.2462 158 169 232 
2.0132 1.04503 4.26737 170 186 250 
2.02417 1.04692 4.2632 155 178 240 
2.01781 1.05139 4.26138 65 52 134 
1.9325 1.07197 4.28598 46 30 50 
1.91435 1.08241 4.28288 58 36 52 
2.12586 1.08819 4.2441 26 31 43 
2.07042 1.09512 4.25903 31 56 125 
1.96786 1.10829 4.28173 92 125 174 
1.96626 1.10536 4.27017 143 167 219 
2.0887 1.10311 4.24722 36 22 58 
-0.736007 1.0365 3.42203 110 128 152 
-0.740653 1.03742 3.41615 125 125 141 
-0.43277 1.02701 3.24669 41 66 140 
-0.42846 1.03093 3.24627 147 166 224 
0.580191 -1.66864 4.79315 91 70 97 
1.57681 -1.5954 4.59909 89 72 94 
0.58252 -1.64944 4.79169 79 60 82 
1.32395 -1.60068 4.65518 82 61 87 
0.756154 -1.59334 4.75137 96 71 93 
0.0686383 -1.46088 4.39442 63 25 42 
-0.35807 -1.49115 4.57162 84 43 64 
0.816495 -1.54121 4.74175 96 70 90 
0.656846 -1.52819 4.76846 110 75 99 
0.680685 -1.52294 4.76114 100 81 105 
0.684705 -1.50392 4.77184 89 68 90 
-1.8354 -1.62016 5.25659 119 98 109 
1.60028 -1.4105 4.57713 102 74 98 
1.61352 -1.40913 4.58085 56 42 67 
-1.8352 -1.60946 5.25584 73 45 59 
0.731864 -1.43285 4.75467 99 71 86 
0.91944 -1.4209 4.7113 124 113 134 
0.658021 -1.41965 4.77701 70 60 79 
0.651831 -1.40505 4.7682 110 92 108 
-1.96533 -1.53002 5.27373 62 55 78 
-1.23324 -1.39556 5.12547 76 57 73 
1.25935 -1.24452 4.64109 108 107 123 
1.37162 -1.23049 4.61966 120 95 114 
0.803432 -1.23605 4.73769 87 64 84 
1.36328 -1.20395 4.61576 105 87 107 
0.757454 -1.23125 4.72849 67 44 64 
0.798991 -1.21561 4.72606 100 87 114 
1.38437 -1.18072 4.61396 89 67 88 
0.791919 -1.20102 4.72803 74 53 78 
-2.35844 -1.35292 5.33514 69 56 72 
-1.25597 -1.29473 5.12032 74 58 84 
-1.20283 -1.23863 5.11039 102 76 94 
-0.0445415 -1.08687 4.48222 85 48 62 
0.0325285 -1.08455 4.46894 150 92 103 
0.0651548 -1.0768 4.46679 98 50 68 
-0.515738 -1.09058 4.57425 79 42 55 
0.060355 -1.06272 4.45657 132 85 101 
-1.46727 -1.22104 5.15867 80 67 80 
-0.574696 -1.09194 4.60634 82 47 59 
-0.695782 -1.08784 4.61252 82 41 52 
-1.76554 -1.22699 5.22873 125 118 135 
0.060487 -1.04656 4.46643 71 35 49 
-1.75144 -1.22178 5.22716 73 58 76 
-1.63389 -1.20753 5.19189 79 57 71 
-2.21193 -1.20815 5.29773 72 49 63 
1.15658 -1.04641 4.65649 78 49 61 
-1.3556 -1.13949 5.12273 68 51 61 
-2.29943 -1.14981 5.30226 120 112 133 
0.791384 -1.00493 4.71017 140 129 151 
0.786296 -0.9903 4.72393 108 82 102 
-1.42764 -1.07119 5.14157 97 76 96 
0.712249 -0.974936 4.72335 118 86 101 
0.793496 -0.962519 4.70814 111 86 111 
-1.41395 -1.03375 5.15086 45 35 56 
-0.386276 -0.927177 4.65424 91 49 62 
-0.369404 -0.92677 4.65623 75 41 49 
-2.31918 -1.05448 5.31545 124 117 135 
-1.50794 -1.01698 5.16869 50 29 49 
1.70914 -0.879625 4.53654 137 123 141 
1.70269 -0.867135 4.53194 71 51 70 
1.36634 -0.86424 4.6018 60 44 62 
-0.964976 -0.894966 4.77755 59 36 44 
1.30286 -0.864198 4.61515 74 62 86 
-0.287597 -0.853126 4.6293 75 34 48 
1.21245 -0.852618 4.62856 79 58 83 
0.718813 -0.860187 4.71794 115 92 110 
0.70652 -0.859163 4.73449 69 52 72 
0.790621 -0.850764 4.70572 97 65 82 
-0.0479055 -0.774665 4.58033 57 26 31 
-1.48937 -0.859824 5.15132 68 58 75 
-0.074367 -0.761762 4.59116 59 26 35 
-1.91626 -0.848912 5.2305 81 61 83 
-2.30327 -0.853641 5.29837 122 108 128 
-1.36408 -0.819416 5.11492 74 64 87 
-1.82782 -0.829986 5.19632 127 115 139 
-1.97655 -0.829843 5.23864 49 40 64 
1.83585 -0.696359 4.49901 86 73 89 
-2.42962 -0.684114 5.32675 62 51 75 
-0.281694 -0.545793 4.61242 64 29 32 
-0.284488 -0.539826 4.6186 147 134 115 
1.14193 -0.526693 4.61703 149 125 147 
-0.368053 -0.527368 4.66998 55 26 33 
1.4965 -0.5119 4.5523 85 68 88 
-2.42983 -0.515147 5.30912 123 115 138 
-0.266439 -0.427008 4.59836 191 180 157 
-0.620274 -0.411155 4.66064 69 32 39 
-0.557201 -0.410808 4.66204 67 34 41 
-0.507952 -0.376139 4.65662 75 35 45 
-2.45656 -0.411543 5.30709 69 50 70 
-0.405889 -0.34557 4.62883 166 147 133 
-2.40832 -0.389496 5.29229 111 107 134 
-0.187822 -0.316812 4.61238 210 197 166 
-0.406215 -0.316883 4.63256 138 109 97 
-0.327014 -0.307221 4.53988 182 162 140 
0.420779 -0.30586 4.5824 143 97 110 
-0.18454 -0.301202 4.59058 214 205 176 
-0.204617 -0.2881 4.61115 188 173 146 
0.334992 -0.274352 4.58658 112 62 71 
0.42904 -0.271199 4.56856 90 43 55 
-0.385112 -0.265526 4.64044 135 109 87 
-0.282149 -0.255274 4.54223 175 159 140 
-0.272708 -0.255843 4.54291 228 215 186 
-1.00683 -0.265586 4.85953 100 54 59 
-0.93174 -0.265018 4.8383 69 31 39 
-0.282141 -0.248264 4.54209 185 168 139 
-0.218809 -0.235405 4.55594 115 92 76 
-0.562589 -0.23838 4.66637 79 37 48 
-0.249052 -0.232248 4.54383 177 160 134 
-0.652644 -0.236195 4.68354 70 30 41 
1.4062 -0.229672 4.5522 120 107 127 
-0.260851 -0.219283 4.54276 147 127 102 
1.36905 -0.197162 4.56295 90 70 81 
0.223746 -0.180303 4.61216 91 41 50 
-0.226545 -0.168312 4.61663 93 72 53 
1.6044 -0.16361 4.50839 69 51 67 
-0.241053 -0.165889 4.61764 87 65 44 
-0.217521 -0.164049 4.62969 132 114 90 
0.0755343 -0.159964 4.52872 90 41 52 
-0.611565 -0.158338 4.66845 74 32 39 
0.395854 -0.10831 4.51632 136 88 100 
-0.50852 -0.0934741 4.63951 78 32 42 
-0.26756 -0.0835354 4.45707 145 135 133 
-0.260603 -0.0812767 4.45743 194 182 175 
-0.272182 -0.0709241 4.45639 129 123 121 
0.557158 -0.0703542 4.54413 89 38 47 
-0.273868 -0.0616323 4.44602 186 183 176 
-0.281813 -0.0408899 4.42509 163 152 156 
-0.270306 -0.0386532 4.42575 215 211 200 
-0.257069 -0.0364817 4.43645 143 132 130 
-0.292642 -0.0344232 4.41438 184 180 179 
-0.241449 -0.034305 4.44726 208 207 189 
1.35625 -0.029544 4.55201 110 101 120 
-0.234496 -0.027461 4.44745 132 121 119 
1.39972 -0.0269565 4.53126 83 58 79 
-0.285749 -0.0249226 4.41459 83 69 58 
-0.271978 -0.024961 4.41543 119 103 88 
1.42765 -0.024811 4.52982 78 63 78 
-0.279489 -0.0227016 4.42489 117 106 88 
1.86437 -0.0124293 4.45502 119 104 125 
1.59229 -0.0106779 4.50075 90 70 90 
0.736576 -0.00772046 4.51029 91 38 44 
-0.316939 -0.00669717 4.43198 98 86 96 
-0.281135 -0.00678365 4.41454 65 59 73 
1.57136 -0.0053957 4.50813 91 69 88 
-0.272568 -0.00340196 4.42478 43 37 49 
1.08373 -0.00349614 4.60526 91 72 91 
1.70638 -0.00372846 4.47352 109 84 105 
-0.265656 -0.00226119 4.42533 134 128 132 
1.56098 -0.00219425 4.51203 79 57 75 
-0.350734 0.00142667 4.47935 49 37 26 
-0.258748 7.99988e-07 4.42567 96 90 94 
-0.251837 0.00226379 4.42598 143 137 137 
1.83085 0.00319592 4.45829 154 144 168 
-1.23928 0.00574311 4.89615 70 26 34 
-0.145699 0.0126732 4.50011 181 174 166 
-0.188683 0.0140998 4.46175 111 101 102 
-0.138333 0.0195544 4.48972 133 114 106 
-0.0822866 0.0241787 4.49986 117 91 90 
-0.300786 0.0285448 4.43234 132 120 94 
-0.105528 0.0287689 4.48962 164 151 142 
-2.34661 0.0359103 5.27151 69 58 82 
-0.10997 0.0390712 4.47894 109 90 83 
-0.114624 0.0471755 4.47898 159 149 140 
0.0188478 0.0477969 4.53813 99 49 58 
0.0801423 0.0487195 4.52347 75 28 36 
0.0848804 0.047547 4.52332 71 28 35 
-0.0821008 0.0507339 4.48878 120 98 100 
-0.647959 0.0548199 4.66715 84 34 44 
1.35282 0.0554217 4.53254 74 52 69 
0.376408 0.0578163 4.56649 71 30 38 
0.43629 0.0585407 4.56983 82 32 41 
-0.0752245 0.0590069 4.49905 63 38 34 
-0.0732104 0.0686545 4.51967 134 123 117 
0.332731 0.104307 4.58875 78 32 42 
-1.14274 0.13313 4.86573 63 24 30 
-1.08247 0.132689 4.85735 80 36 46 
0.0282248 0.126068 4.52518 99 43 52 
-0.609384 0.131727 4.65157 84 34 41 
0.868081 0.124287 4.3667 54 29 37 
-1.34755 0.138035 4.79944 69 32 39 
-1.92721 0.168849 5.18654 71 59 80 
-2.22572 0.193647 5.22019 52 41 66 
-2.01029 0.194095 5.18429 125 112 125 
-2.14371 0.19863 5.19964 44 48 67 
-2.22371 0.20559 5.23464 46 33 61 
-2.25056 0.20779 5.22088 42 55 80 
-2.1527 0.207735 5.21479 125 143 204 
-2.24582 0.22261 5.23517 33 46 84 
-2.11856 0.227486 5.21102 11 23 69 
-2.23382 0.231787 5.21999 138 135 186 
-2.13262 0.233172 5.21214 158 186 250 
-1.9207 0.274659 5.18343 60 49 67 
1.27008 0.247841 4.55812 143 136 152 
1.81567 0.242622 4.43256 110 102 118 
-1.94683 0.283842 5.17396 67 49 68 
-2.19061 0.288846 5.20134 30 24 67 
-2.17739 0.289711 5.21516 18 36 98 
1.4596 0.263413 4.48274 69 112 209 
-2.23297 0.330639 5.21783 38 58 111 
-2.13423 0.329642 5.19613 17 30 91 
1.45938 0.288873 4.48205 70 117 214 
1.21855 0.296271 4.56116 98 75 97 
-2.24943 0.34473 5.21803 35 32 63 
-2.23276 0.344758 5.21725 147 146 207 
-2.13402 0.343728 5.19554 146 173 239 
-2.12013 0.347914 5.1949 28 43 98 
1.46476 0.303479 4.49136 82 128 218 
-0.564703 0.312882 4.52655 93 49 59 
-2.14343 0.369436 5.17896 161 180 232 
1.28658 0.325991 4.54082 77 59 80 
-2.14502 0.378928 5.19588 26 30 57 
-2.22072 0.383124 5.20197 22 27 52 
-0.302014 0.325571 4.41599 74 66 106 
-1.47773 0.350678 4.64921 89 56 60 
-0.327199 0.33888 4.41393 122 103 132 
-1.54268 0.360955 4.65482 104 73 85 
-0.323356 0.343076 4.42383 138 141 181 
-1.55246 0.367519 4.64775 68 43 54 
0.529705 0.336492 4.26585 78 40 56 
-1.39515 0.368242 4.62475 57 30 31 
-1.32702 0.366485 4.61464 76 43 55 
0.939804 0.332961 4.179 85 42 55 
-1.03459 0.364689 4.55689 99 50 61 
-0.966056 0.364342 4.54764 97 50 65 
-0.678955 0.36209 4.48521 96 48 61 
-1.33495 0.374262 4.61697 119 81 91 
0.0339301 0.354883 4.3509 89 47 58 
0.097071 0.353935 4.33225 117 71 84 
0.447366 0.352559 4.26621 94 47 62 
-1.47757 0.386705 4.64872 61 43 55 
-1.0204 0.378604 4.54652 94 42 50 
-0.981848 0.377742 4.54394 104 57 71 
0.0927635 0.361498 4.34224 136 92 107 
0.799333 0.349102 4.19715 105 56 71 
-1.51332 0.389726 4.64661 77 68 83 
-1.11493 0.382703 4.57429 83 48 60 
0.441315 0.35996 4.27234 139 93 105 
0.793181 0.355892 4.19937 130 83 94 
-1.25523 0.391954 4.59855 112 75 89 
-0.045628 0.371191 4.36042 100 58 75 
-0.176559 0.376365 4.3907 91 49 69 
0.175436 0.370797 4.31376 80 47 62 
0.305352 0.369707 4.30444 100 57 68 
0.435253 0.367157 4.2785 104 53 65 
0.524078 0.368043 4.25651 77 42 57 
0.657255 0.367439 4.22725 108 60 66 
0.748331 0.365032 4.20594 69 34 42 
1.9584 0.39785 4.38435 129 102 115 
1.48677 0.412787 4.50121 85 61 86 
-1.4601 0.438214 4.6318 71 39 47 
-1.47597 0.452905 4.63612 84 44 52 
-1.1124 0.452965 4.57336 109 60 74 
-0.756688 0.447498 4.50207 109 56 75 
-0.043458 0.440774 4.36852 102 55 73 
0.663341 0.428193 4.2238 138 89 103 
0.381646 0.453883 4.27826 98 63 79 
1.90903 0.558393 4.39709 97 74 92 
-1.92949 0.70034 5.14858 86 68 74 
1.70032 0.647428 4.43928 102 71 88 
1.30301 0.674289 4.52378 121 118 141 
0.743727 0.655468 4.18013 83 41 51 
0.772291 0.65418 4.16948 95 48 57 
0.856157 0.713866 4.1646 77 41 52 
1.49372 0.821853 4.4657 131 108 125 
1.69616 0.818985 4.42227 102 77 98 
1.41897 0.841229 4.47985 91 88 110 
0.218291 0.651289 3.45966 117 74 96 
1.57598 0.861562 4.45444 118 115 144 
1.86547 0.853122 4.38622 88 91 104 
1.71843 0.86328 4.41426 94 90 109 
0.857617 0.824271 4.16115 85 46 61 
-0.712564 0.705937 3.49087 72 33 46 
-0.679792 0.707524 3.49113 75 41 56 
-0.229024 0.703125 3.39917 79 43 60 
0.167387 0.707029 3.41582 114 66 87 
0.742831 0.866892 4.17519 62 39 47 
-0.71419 0.746316 3.48956 76 35 49 
-0.678044 0.744161 3.4819 86 46 62 
-0.229003 0.742302 3.3984 79 45 61 
1.5617 0.97341 4.36887 97 79 101 
1.92525 0.980212 4.27982 83 64 75 
2.09695 0.973292 4.2475 60 46 61 
0.525239 0.885999 3.82805 59 33 46 
1.9472 0.99577 4.28397 63 102 167 
2.04911 0.990674 4.24951 45 36 101 
1.97161 0.999867 4.27863 55 39 123 
2.08199 1.00092 4.23975 130 136 208 
1.93517 1.01825 4.28202 118 128 171 
2.09098 1.00909 4.24448 142 155 218 
-0.246675 0.818479 3.39692 98 49 65 
0.234546 0.836467 3.45964 98 57 81 
0.00855162 0.818984 3.35064 85 56 74 
2.00994 1.04302 4.26522 168 186 254 
1.91081 1.08044 4.27741 72 51 65 
2.10576 1.07464 4.23843 65 40 76 
2.09924 1.07906 4.24765 146 153 219 
2.11894 1.08488 4.23379 21 24 35 
-0.342634 1.02274 3.24714 43 59 121 
-0.508374 1.03093 3.21205 189 180 247 
1.29445 -1.59224 4.65584 89 66 87 
0.733811 -1.59999 4.76406 93 74 104 
0.75927 -1.5965 4.75536 94 71 91 
-0.207382 -1.4886 4.53243 74 39 59 
-0.357091 -1.48634 4.5589 82 30 54 
0.812421 -1.53954 4.73535 96 75 95 
1.43254 -1.50293 4.62152 81 71 95 
0.736986 -1.53151 4.74608 100 75 98 
1.2328 -1.49691 4.66518 113 86 103 
0.682962 -1.52314 4.76314 89 66 90 
1.36613 -1.47455 4.63188 90 69 91 
1.33273 -1.46763 4.63675 95 59 80 
0.682878 -1.50201 4.76255 89 68 90 
1.16395 -1.4637 4.67027 82 55 78 
0.699883 -1.48425 4.75652 73 51 71 
-0.804744 -1.42444 4.57179 139 102 118 
-1.47086 -1.59834 5.184 78 68 86 
1.60448 -1.41522 4.59185 101 73 98 
1.61569 -1.40996 4.58282 46 32 57 
1.60663 -1.40879 4.58979 128 104 130 
0.68551 -1.44451 4.76012 81 59 76 
1.1056 -1.41239 4.68326 123 107 126 
0.842195 -1.41533 4.73602 78 65 85 
-1.72303 -1.55373 5.23003 65 55 73 
-1.17164 -1.51174 5.11095 88 62 75 
0.656346 -1.38389 4.7648 120 102 124 
1.59664 -1.31987 4.57753 73 59 90 
-1.19502 -1.45505 5.11532 97 67 81 
2.0583 -1.26349 4.49029 150 123 140 
-1.50237 -1.40259 5.18097 135 118 136 
-1.95692 -1.41699 5.2605 82 63 85 
1.26109 -1.24511 4.6403 120 118 133 
1.38751 -1.23514 4.62585 46 31 47 
-1.83344 -1.39102 5.23713 67 55 72 
1.49769 -1.21281 4.58171 118 107 132 
1.47887 -1.20679 4.59468 93 68 90 
0.797382 -1.2122 4.71654 92 82 109 
-2.24725 -1.35726 5.30807 125 101 115 
1.35839 -1.17602 4.6255 93 77 98 
-2.37836 -1.35391 5.34887 70 64 76 
-2.18794 -1.34224 5.30131 58 41 51 
-1.25805 -1.29738 5.13736 60 44 70 
0.904337 -1.16445 4.70445 123 103 122 
0.272693 -1.1012 4.53782 48 26 37 
0.0640892 -1.07414 4.45865 88 39 58 
-0.0225311 -1.07443 4.47518 93 50 59 
-1.2004 -1.22115 5.11084 132 109 122 
-0.571299 -1.0857 4.58353 82 47 59 
-0.698283 -1.0899 4.62618 82 41 52 
1.17641 -1.09481 4.65043 97 75 92 
-1.6343 -1.20655 5.18787 77 58 70 
1.20035 -1.08116 4.6529 102 83 96 
1.85154 -1.04915 4.51429 59 53 72 
-1.81217 -1.21376 5.23237 64 56 72 
-1.83591 -1.20743 5.23478 76 67 83 
-0.613738 -1.05612 4.60001 115 72 84 
1.51156 -1.04436 4.58056 76 61 82 
0.884624 -1.05958 4.7093 95 75 102 
1.1666 -1.04681 4.68114 70 38 56 
0.0307928 -0.988762 4.48332 77 41 54 
-1.64016 -1.12423 5.18614 122 114 136 
-2.28817 -1.14835 5.32612 51 43 54 
-0.153158 -0.925319 4.61146 82 42 50 
1.2946 -0.919601 4.62515 61 43 63 
-2.25228 -1.0514 5.3043 138 128 143 
1.30436 -0.906797 4.61869 136 113 128 
1.70471 -0.867301 4.53731 71 51 70 
1.27779 -0.870633 4.61689 96 80 97 
1.30389 -0.865304 4.61713 74 62 86 
1.21274 -0.851268 4.6224 78 62 87 
0.72289 -0.862706 4.7317 117 94 112 
0.940639 -0.853302 4.67993 78 64 80 
0.757197 -0.855771 4.70547 94 70 92 
1.20017 -0.839086 4.62965 87 77 100 
0.880858 -0.846409 4.6893 133 115 130 
0.905336 -0.833289 4.67918 87 74 97 
-0.0460028 -0.775767 4.58243 61 30 35 
-1.5675 -0.867608 5.16069 110 93 105 
-1.49088 -0.859196 5.1529 60 49 68 
-1.60536 -0.86151 5.1893 78 57 66 
-0.0746933 -0.761059 4.58253 76 39 47 
-0.471495 -0.7748 4.67541 63 28 36 
-0.358045 -0.760615 4.64728 59 27 32 
-2.32377 -0.859178 5.28568 107 97 113 
-1.84528 -0.846057 5.21534 70 57 80 
-1.718 -0.841846 5.18593 130 118 139 
-2.31336 -0.858722 5.32263 122 108 128 
-1.9748 -0.830399 5.23834 54 40 65 
-0.41097 -0.717739 4.6535 63 29 36 
1.21536 -0.710622 4.64343 117 115 132 
-0.977533 -0.667884 4.77331 81 48 59 
0.306994 -0.606374 4.62621 71 36 43 
-2.42588 -0.684036 5.32113 71 62 84 
-0.369819 -0.527776 4.68626 53 26 33 
1.49956 -0.510794 4.55291 67 52 70 
-0.229045 -0.517654 4.62811 50 30 25 
-0.368356 -0.515344 4.66748 78 56 42 
-1.34797 -0.539447 5.11267 67 51 70 
1.1658 -0.462467 4.62004 77 57 72 
-1.73472 -0.497033 5.16796 72 62 89 
0.0793464 -0.414797 4.53002 78 38 49 
-0.377643 -0.416422 4.63794 151 131 113 
-0.619426 -0.410384 4.66526 67 28 35 
-0.28409 -0.399753 4.5812 223 215 194 
1.19575 -0.398149 4.60162 81 54 68 
1.25041 -0.38402 4.60129 70 45 53 
-0.247168 -0.384683 4.64206 105 78 59 
-0.025782 -0.376732 4.56006 80 35 45 
0.13063 -0.376531 4.53775 63 26 34 
-0.400589 -0.381666 4.63459 158 137 124 
-0.662684 -0.376992 4.68191 62 29 37 
-2.4059 -0.405128 5.29923 65 59 75 
-0.874686 -0.348565 4.8328 75 40 48 
-0.406236 -0.33163 4.63283 150 123 114 
-0.18197 -0.320775 4.61047 201 190 162 
-0.403345 -0.317695 4.63292 152 129 113 
-0.196191 -0.30916 4.60542 160 138 124 
-0.178995 -0.30949 4.60818 158 147 129 
0.41787 -0.306337 4.57162 144 96 112 
-0.204425 -0.28837 4.59602 178 158 134 
-0.393994 -0.281448 4.62533 140 117 100 
0.505853 -0.27515 4.56469 81 41 50 
0.335942 -0.273636 4.58643 102 54 64 
0.37666 -0.274544 4.59259 82 41 55 
-0.307032 -0.268624 4.53866 188 176 150 
-0.292872 -0.259007 4.53942 197 185 161 
0.533576 -0.254926 4.55732 79 41 51 
-1.00688 -0.265785 4.87208 85 42 48 
-0.876403 -0.264895 4.84225 64 32 44 
-0.281538 -0.247929 4.54 185 168 139 
-0.301332 -0.239304 4.5384 117 89 67 
-0.236178 -0.237184 4.54248 100 76 66 
-0.01431 -0.237467 4.54395 60 23 32 
-0.247521 -0.234266 4.54182 184 167 141 
-1.03506 -0.247981 4.87544 100 52 58 
-0.615002 -0.23824 4.67607 78 39 48 
-0.557522 -0.237889 4.66065 66 29 41 
-0.520603 -0.23777 4.66981 62 24 31 
-0.208557 -0.231959 4.56045 173 155 135 
1.82772 -0.220904 4.47691 125 113 135 
1.83368 -0.219573 4.47767 128 109 129 
-0.261678 -0.220103 4.54073 140 118 94 
1.37231 -0.197277 4.56594 96 73 82 
0.225272 -0.179422 4.61403 79 33 43 
-0.203736 -0.175196 4.64582 114 94 72 
0.028343 -0.160083 4.54022 90 39 46 
0.0766272 -0.160248 4.53721 81 31 42 
-0.234207 -0.159457 4.61562 136 116 89 
-0.560174 -0.157848 4.65838 79 32 42 
0.893797 -0.140021 4.37878 63 29 41 
0.408752 -0.113004 4.50278 128 73 92 
0.394886 -0.107363 4.50545 136 88 100 
-0.0257527 -0.0952844 4.55389 80 32 48 
0.405933 -0.0904414 4.5028 139 93 106 
-0.664717 -0.0920402 4.67559 58 24 35 
0.0908129 -0.0827525 4.53679 72 32 43 
0.476064 -0.0801831 4.55328 66 25 31 
0.253779 -0.0658139 4.60734 88 40 50 
-0.275965 -0.062123 4.45 193 190 181 
-0.262076 -0.0594334 4.45077 102 98 99 
-1.06187 -0.0582043 4.8723 85 36 42 
-0.756044 -0.0572103 4.79038 77 34 44 
-0.264847 -0.0539297 4.4505 115 113 116 
0.548359 -0.0490696 4.5617 64 30 37 
0.23086 -0.047084 4.61022 81 36 43 
-0.270956 -0.0399261 4.41385 215 209 200 
-0.225601 -0.0343415 4.44595 208 204 193 
1.20808 -0.0293064 4.58283 99 74 88 
1.40392 -0.026735 4.53865 68 44 69 
1.42472 -0.0252582 4.52354 75 59 74 
1.45637 -0.025362 4.5339 94 66 84 
1.86575 -0.0146123 4.45383 125 110 129 
1.36026 -0.0118813 4.55427 118 114 131 
-0.301996 -0.00583953 4.42295 29 17 31 
0.736003 -0.00655511 4.50379 78 29 32 
1.57632 -0.00580045 4.51964 89 69 89 
1.0836 -0.00276554 4.60269 91 72 91 
1.74239 -0.00283899 4.4665 106 79 94 
-0.330416 -0.000579102 4.4327 119 109 108 
-1.61556 0.00815535 5.12873 105 84 96 
-0.25506 0.00771817 4.42558 163 159 149 
-0.231421 0.0160151 4.45065 131 118 110 
-0.137862 0.0188622 4.48978 142 125 117 
-0.0818513 0.0244284 4.50197 112 87 92 
-0.10412 0.0271482 4.48968 163 151 139 
-2.34021 0.035538 5.25587 92 81 101 
0.0593378 0.031383 4.5211 159 105 118 
-0.0927467 0.0330914 4.48322 190 180 179 
-0.0957323 0.0419748 4.49124 196 188 178 
-0.112542 0.0466119 4.48931 164 154 145 
0.0821818 0.0483559 4.53181 67 24 31 
0.118661 0.0481215 4.51606 73 27 37 
1.72034 0.047516 4.46735 143 125 140 
-0.43866 0.0509577 4.60752 78 52 54 
-0.0816321 0.0507335 4.48877 120 98 100 
-0.652955 0.0551763 4.67504 81 34 44 
-0.612515 0.0548936 4.65695 78 35 44 
-0.555259 0.0546333 4.64151 64 28 35 
-0.518195 0.0546909 4.64799 66 24 33 
-0.321919 0.0526054 4.50811 46 36 26 
0.437905 0.0571367 4.57175 81 33 39 
1.6489 0.0592434 4.47847 124 106 128 
-0.932887 0.0688326 4.83625 75 31 37 
0.0396622 0.0667444 4.5345 63 33 42 
-1.07564 0.13047 4.86542 68 30 37 
-1.14534 0.13428 4.87673 63 24 30 
0.0790999 0.12401 4.51767 99 43 56 
0.814009 0.123183 4.37736 81 37 50 
-0.609474 0.133287 4.65597 71 25 32 
-1.33113 0.161605 4.79793 87 36 43 
-2.12866 0.188439 5.18929 59 59 73 
-1.96164 0.188587 5.18586 90 84 102 
-2.23124 0.196727 5.2317 36 30 54 
-2.14614 0.199328 5.20801 44 48 67 
-2.22441 0.206933 5.23098 34 26 51 
-2.21122 0.208569 5.23096 136 135 193 
-2.14939 0.209509 5.20792 125 143 204 
-2.11559 0.224655 5.2051 19 21 46 
-2.22992 0.231542 5.21329 150 149 203 
-2.23412 0.252792 5.23065 50 55 117 
-1.9751 0.271524 5.18723 96 84 98 
1.47229 0.237574 4.51303 69 51 69 
1.26879 0.24784 4.55353 143 136 152 
1.28222 0.247224 4.55056 76 52 76 
-1.95075 0.284941 5.18285 67 49 68 
1.30669 0.250287 4.55641 131 128 147 
1.46768 0.264145 4.49887 87 129 218 
-2.11835 0.312711 5.20378 52 50 81 
-2.13848 0.326295 5.20512 22 23 79 
-2.12842 0.341495 5.20456 100 118 176 
1.3013 0.298369 4.54754 85 63 76 
-2.25342 0.347829 5.22972 35 32 63 
-2.25575 0.355002 5.21261 37 42 63 
-2.11126 0.35501 5.20233 31 23 39 
1.68273 0.303959 4.45659 96 66 76 
-2.20547 0.371998 5.20933 152 156 206 
-2.14751 0.37067 5.18749 161 180 232 
-2.2188 0.375367 5.20998 18 15 34 
-2.22537 0.382123 5.21005 16 20 38 
-0.25391 0.324988 4.40491 124 134 184 
-2.13072 0.389193 5.1863 27 28 55 
-0.32081 0.331458 4.41438 119 134 176 
-1.53509 0.351755 4.65108 75 48 60 
-1.47934 0.351974 4.64973 67 38 44 
-1.24738 0.348494 4.58886 104 63 74 
-0.324067 0.343123 4.42102 132 130 166 
-0.251263 0.34212 4.40655 128 138 183 
-0.049429 0.339253 4.37286 108 64 77 
0.529719 0.335602 4.25184 95 50 61 
-1.39627 0.367242 4.62537 54 28 30 
-1.32714 0.366939 4.61656 76 43 55 
0.653731 0.335656 4.22722 69 37 50 
0.939 0.331929 4.17734 82 40 51 
1.46246 0.359353 4.48287 81 119 208 
-1.33668 0.373232 4.61948 120 84 96 
-0.612174 0.361242 4.48333 101 55 72 
-0.324385 0.359584 4.42557 86 43 53 
-0.251919 0.359408 4.41813 82 40 51 
0.946058 0.339639 4.17386 115 80 94 
-1.02939 0.373756 4.56553 123 73 80 
0.100437 0.355047 4.33989 87 44 58 
-0.313374 0.366482 4.42593 132 86 99 
0.0406605 0.361795 4.34432 115 78 91 
0.0922989 0.360451 4.34051 136 92 107 
0.958049 0.348225 4.18057 92 48 61 
0.441419 0.35826 4.27334 140 94 108 
-0.0439393 0.371759 4.37202 96 57 73 
0.0489439 0.370904 4.35529 98 56 70 
0.0871046 0.369563 4.35254 95 51 65 
0.745339 0.35926 4.22135 108 70 81 
0.175704 0.369979 4.31974 80 47 62 
0.306843 0.369125 4.30023 90 51 62 
0.39576 0.365846 4.27149 95 51 60 
0.433554 0.366391 4.27495 112 61 75 
0.524466 0.367689 4.25245 84 48 62 
0.752006 0.3642 4.21429 98 54 64 
1.47753 0.411528 4.50313 93 71 88 
1.48651 0.412224 4.5047 107 86 104 
-1.52809 0.440053 4.64713 63 35 37 
-1.25416 0.446841 4.60321 123 75 83 
-1.474 0.452715 4.63272 84 44 52 
-0.0328797 0.424762 4.35877 116 69 89 
-1.11056 0.452389 4.56978 105 58 70 
0.317425 0.424027 4.29728 97 50 62 
0.671003 0.420277 4.2194 110 58 69 
-0.534772 0.444564 4.44659 90 49 65 
-0.402273 0.443749 4.42823 104 53 67 
-0.0438364 0.439521 4.35861 117 68 87 
0.561776 0.436137 4.25257 102 49 54 
0.62555 0.434692 4.23366 93 47 50 
0.521716 0.438386 4.25159 103 52 63 
0.909802 0.433543 4.17539 108 54 66 
0.379823 0.451499 4.27281 98 62 77 
-1.11259 0.485262 4.55458 93 46 57 
-1.87954 0.556235 5.16516 58 48 59 
-1.90397 0.564705 5.15243 45 37 51 
-0.0383641 0.477315 4.35765 100 56 66 
0.658976 0.469693 4.21014 82 47 55 
1.34321 0.547366 4.52562 127 120 141 
1.34846 0.567238 4.5242 118 112 137 
1.36721 0.570112 4.51128 91 78 104 
-2.4929 0.681954 5.2578 128 116 143 
-2.38063 0.710059 5.24244 104 101 122 
1.51598 0.60829 4.48337 146 129 146 
1.70267 0.647744 4.44301 88 61 79 
1.25153 0.672273 4.53228 134 132 150 
1.30798 0.674699 4.53117 124 125 149 
0.85814 0.714537 4.16579 70 35 44 
0.727545 0.740151 4.17989 93 47 56 
0.254986 0.618699 3.48198 123 72 86 
1.49197 0.819719 4.46182 131 108 126 
0.218506 0.649372 3.45715 114 69 90 
1.50026 0.872846 4.46989 67 55 79 
1.70862 0.868403 4.42945 118 99 114 
1.72079 0.866395 4.41794 105 96 116 
1.76284 0.875943 4.41242 85 60 76 
-0.67968 0.705857 3.48835 96 50 65 
-0.195646 0.701315 3.39172 106 55 69 
0.741761 0.865484 4.17164 62 39 47 
-0.844395 0.744385 3.51952 98 54 69 
-0.714645 0.745457 3.48814 84 41 55 
-0.549881 0.742809 3.45492 93 46 58 
-0.227905 0.742022 3.39857 83 45 62 
-0.476747 0.760551 3.44321 107 54 70 
1.56351 0.972981 4.36508 93 75 97 
1.93008 0.982881 4.2866 54 34 47 
1.94974 0.989618 4.29447 44 41 54 
2.07849 0.985117 4.2606 98 123 184 
2.07826 0.990002 4.27111 158 188 248 
2.08363 0.987659 4.2602 141 151 215 
-0.917375 0.819582 3.52864 85 43 60 
1.96196 0.996034 4.28587 128 152 211 
2.06018 0.996459 4.27237 45 36 101 
1.91914 1.00155 4.28614 64 46 59 
-0.661853 0.814508 3.47454 101 54 67 
-0.730583 0.820153 3.4912 88 47 61 
2.11442 1.00036 4.25772 31 39 52 
1.9398 1.01188 4.29624 17 26 64 
1.94618 1.0211 4.29838 114 142 197 
2.01725 1.03725 4.2665 21 27 96 
0.00815684 0.814664 3.3437 78 40 58 
1.91565 1.08201 4.28425 58 36 52 
2.06692 1.09173 4.25864 23 39 95 
2.08203 1.0955 4.25693 154 171 237 
1.95702 1.10745 4.28087 18 28 59 
1.96563 1.10502 4.27041 132 161 210 
2.09522 1.10447 4.25651 32 17 62 
0.0641585 0.882385 3.31575 115 74 92 
-0.405693 1.02052 3.2525 66 50 120 
-0.350335 1.02399 3.2487 160 187 249 
-0.517205 1.02773 3.23621 181 197 253 
-0.427048 1.03022 3.2444 157 180 235 
-0.526175 1.03123 3.24171 68 47 86 
0.732697 -1.60162 4.76456 96 78 104 
0.684642 -1.58491 4.77905 69 58 81 
-0.357819 -1.48861 4.56162 93 58 76 
-0.420302 -1.48884 4.56918 65 36 50 
1.36276 -1.47249 4.63033 91 62 84 
1.61531 -1.41048 4.58664 51 35 61 
1.59858 -1.404 4.57829 132 112 140 
0.649477 -1.41067 4.78457 118 97 114 
1.3755 -1.3635 4.63813 80 69 84 
0.653927 -1.37992 4.76459 129 116 134 
0.822738 -1.35089 4.72644 92 67 74 
-1.19461 -1.45702 5.12117 95 63 78 
0.842417 -1.34013 4.7372 99 74 93 
0.751968 -1.33941 4.75062 87 60 70 
0.705146 -1.3355 4.74783 108 75 92 
0.646825 -1.32596 4.76503 104 88 111 
-1.25126 -1.41598 5.13341 74 53 61 
-2.14306 -1.4434 5.28708 70 52 61 
-1.38695 -1.40681 5.14954 79 64 72 
1.60798 -1.24421 4.58553 71 57 79 
1.25492 -1.24299 4.6305 91 87 102 
-1.82836 -1.40237 5.23941 93 70 80 
1.38594 -1.23481 4.62649 52 34 50 
1.32626 -1.20974 4.62451 88 65 82 
1.49244 -1.18082 4.59042 97 83 101 
-2.37326 -1.35388 5.34016 71 66 77 
-2.35504 -1.34831 5.31704 64 56 72 
0.904301 -1.16425 4.70736 117 98 116 
0.0592642 -1.08595 4.47145 142 86 99 
0.271725 -1.10294 4.54051 57 33 46 
-0.0483268 -1.08424 4.47611 58 31 42 
-0.502122 -1.09521 4.56516 116 75 88 
-0.0215037 -1.07826 4.49002 73 31 40 
1.23282 -1.09947 4.63898 112 76 92 
-1.76787 -1.22943 5.22365 116 104 126 
-0.698817 -1.08797 4.61773 66 26 36 
-0.500369 -1.07868 4.58032 113 64 77 
-1.79321 -1.21565 5.22866 50 39 54 
-0.500346 -1.06512 4.58 130 77 89 
1.19903 -1.08141 4.65682 97 80 92 
1.8466 -1.04822 4.51187 63 53 74 
1.69202 -1.04232 4.52443 63 51 63 
1.61919 -1.04079 4.53973 59 49 63 
-1.34824 -1.15889 5.13534 92 70 83 
0.884055 -1.05969 4.71256 106 82 109 
1.15698 -1.04667 4.65656 78 49 61 
-1.36142 -1.13801 5.12675 64 50 59 
-1.64336 -1.13252 5.1898 126 115 135 
0.797669 -1.01222 4.72533 140 129 154 
-0.0213461 -0.926994 4.46459 97 47 56 
-0.460242 -0.947904 4.66194 59 29 37 
-2.32194 -1.05919 5.31497 132 117 136 
-0.386091 -0.927743 4.65562 91 49 62 
-2.24713 -1.04735 5.28899 145 130 148 
-0.533858 -0.910448 4.60237 85 41 56 
-1.50591 -1.01439 5.14677 67 52 68 
1.30124 -0.904163 4.60986 136 113 128 
0.91592 -0.896535 4.67642 111 80 98 
1.49952 -0.875349 4.58052 124 107 123 
1.27737 -0.86921 4.6237 78 64 81 
-0.96395 -0.895726 4.77991 53 30 38 
1.39415 -0.859493 4.58487 93 69 94 
-0.290132 -0.853264 4.6318 76 42 52 
-0.230361 -0.850639 4.61998 91 45 50 
1.21875 -0.854847 4.63861 76 59 83 
0.720239 -0.861433 4.7298 122 102 119 
0.757286 -0.858112 4.7171 108 83 104 
0.951459 -0.85146 4.67836 111 105 128 
0.879789 -0.846782 4.68984 128 108 125 
-1.60353 -0.860842 5.17478 78 56 65 
1.20462 -0.762124 4.62452 92 69 89 
-0.371936 -0.762851 4.65378 82 46 53 
-0.450987 -0.763192 4.67563 66 31 39 
-1.1255 -0.819762 5.0711 51 38 54 
-2.2986 -0.85263 5.28867 122 108 128 
-0.174828 -0.740474 4.61989 112 71 77 
-2.46608 -0.850599 5.33308 126 108 123 
-1.97748 -0.831758 5.23835 49 40 64 
-0.413379 -0.716559 4.64792 66 33 40 
1.82834 -0.692678 4.49207 60 46 60 
0.899242 -0.715175 4.66286 91 78 96 
1.21166 -0.708957 4.63813 112 110 128 
-1.8005 -0.739264 5.19334 85 68 87 
0.832926 -0.648062 4.68401 149 127 148 
-1.72792 -0.706084 5.18651 131 105 115 
0.303533 -0.603071 4.60886 77 40 47 
0.855562 -0.572605 4.67311 139 108 124 
-0.285294 -0.547696 4.61003 58 26 29 
1.02048 -0.549863 4.65648 123 116 139 
1.17738 -0.531166 4.61315 111 96 115 
-0.367061 -0.516852 4.68097 89 66 51 
1.57385 -0.47607 4.51735 115 99 112 
-1.75664 -0.5321 5.19067 102 88 113 
-2.43029 -0.515167 5.30755 123 115 138 
-0.340889 -0.444655 4.65972 140 117 106 
-0.366682 -0.429371 4.63154 138 112 104 
0.0804812 -0.413396 4.53001 67 29 39 
-0.380457 -0.415377 4.62975 134 100 94 
-0.622385 -0.411071 4.67001 74 38 45 
-0.556949 -0.410131 4.65099 67 34 41 
-0.286626 -0.399836 4.5759 220 209 189 
-1.09992 -0.420207 4.85721 76 46 57 
1.19887 -0.399641 4.61585 81 54 68 
-0.508854 -0.375343 4.65867 75 35 45 
0.0159205 -0.364678 4.56343 73 33 44 
0.439973 -0.358647 4.58713 64 31 40 
-2.45705 -0.411625 5.30502 66 48 68 
-0.219465 -0.356583 4.60976 184 165 133 
-0.254728 -0.355588 4.62099 135 114 87 
-2.4217 -0.403843 5.30616 68 64 85 
-1.74845 -0.393532 5.16653 97 86 102 
-2.41378 -0.391544 5.3063 104 102 129 
-0.931602 -0.350037 4.85504 71 31 37 
0.860938 -0.300063 4.29691 140 90 101 
0.414734 -0.305949 4.57492 150 102 116 
1.30132 -0.296619 4.57362 141 121 136 
0.389041 -0.295016 4.59614 86 40 48 
0.337875 -0.274414 4.60492 89 44 54 
0.375393 -0.274326 4.59821 72 34 47 
-1.00513 -0.263822 4.85767 79 41 49 
-0.284521 -0.245791 4.54222 178 161 133 
0.0430197 -0.245835 4.52861 89 46 53 
1.30773 -0.245568 4.58404 88 63 82 
-1.0152 -0.255869 4.85347 123 69 75 
-0.594619 -0.246791 4.67237 86 44 52 
-0.584335 -0.243533 4.67436 85 42 48 
-0.236875 -0.236185 4.54489 100 77 66 
0.0227581 -0.237134 4.56014 58 25 35 
0.0806783 -0.236607 4.54121 60 22 35 
-1.03569 -0.247066 4.88127 78 37 45 
-0.61552 -0.236609 4.67112 61 28 38 
-0.558401 -0.23629 4.66312 56 23 34 
-0.20972 -0.229821 4.54853 181 166 142 
1.8114 -0.212282 4.4587 77 49 68 
1.80299 -0.209595 4.47106 141 126 136 
1.362 -0.195315 4.54676 98 78 90 
0.224388 -0.181058 4.61957 95 45 54 
1.60165 -0.1637 4.50006 69 48 67 
1.61944 -0.163872 4.50252 46 32 54 
-0.219896 -0.164709 4.61874 130 109 85 
-0.247721 -0.161168 4.61982 121 103 79 
-0.237336 -0.159549 4.62016 126 102 75 
0.0260892 -0.158464 4.54293 71 28 37 
1.60376 -0.155488 4.48713 102 87 108 
-0.611488 -0.158968 4.66711 74 32 39 
-0.561632 -0.155609 4.66085 64 26 33 
0.333014 -0.13059 4.58592 90 45 52 
0.350269 -0.123045 4.54149 142 90 102 
-0.911629 -0.11187 4.7695 103 50 58 
-0.664536 -0.0919561 4.67017 69 28 40 
-0.915523 -0.0871522 4.77112 85 43 51 
0.326165 -0.084146 4.58624 82 36 46 
0.554397 -0.0688189 4.53629 102 49 58 
-0.292061 -0.064792 4.44908 202 198 189 
0.251777 -0.0652988 4.61296 76 29 41 
-0.276306 -0.0617378 4.46462 199 199 187 
0.467892 -0.0482192 4.55702 78 34 41 
-0.310685 -0.0452079 4.47658 193 188 194 
-0.286303 -0.0369418 4.46327 148 139 144 
1.42681 -0.0247434 4.53555 75 59 70 
1.45415 -0.0248094 4.53578 95 71 90 
1.3532 -0.0115488 4.54012 133 129 145 
1.59765 -0.0105914 4.50793 82 60 81 
-0.237888 0.00252785 4.43617 47 32 27 
-1.2376 0.0071433 4.88181 75 32 41 
-0.257823 0.00913173 4.43505 185 181 169 
-0.235312 0.0157498 4.45053 140 132 130 
-1.98773 0.026865 5.21361 56 46 57 
-0.072179 0.0257717 4.49686 200 190 178 
-0.112357 0.0390324 4.4821 96 72 70 
-0.0955368 0.0406583 4.48171 193 183 176 
-0.333882 0.046344 4.51723 82 69 53 
-0.112374 0.0473345 4.48166 160 149 143 
-0.653927 0.0553935 4.66949 82 36 47 
-0.614337 0.0552563 4.66197 78 35 44 
-0.092107 0.0536654 4.47899 90 70 72 
0.376776 0.0583498 4.57341 92 45 55 
0.434097 0.058137 4.56181 100 43 52 
-0.667491 0.0656385 4.66622 107 58 70 
-0.0624478 0.063567 4.52587 142 129 133 
-0.871993 0.0718861 4.82773 62 23 29 
-0.3271 0.0700494 4.51731 94 68 51 
1.3453 0.0956305 4.54809 94 76 99 
1.86484 0.0932362 4.44236 66 49 67 
-0.0423308 0.0990362 4.55496 92 40 44 
0.870355 0.0982808 4.37673 67 43 54 
-1.34812 0.111398 4.79212 107 62 80 
-1.14406 0.134345 4.85841 55 28 37 
-1.08099 0.134259 4.85392 65 28 38 
0.0768394 0.125137 4.51782 99 47 59 
-0.610727 0.132301 4.66108 84 34 41 
-2.13122 0.190507 5.2004 31 31 51 
-1.95898 0.189962 5.17893 101 91 108 
-2.01261 0.194246 5.18674 131 113 127 
-2.14328 0.198659 5.20119 44 48 67 
-2.25476 0.208314 5.24225 28 38 60 
-2.2089 0.20776 5.22695 115 107 160 
-2.10654 0.214852 5.19723 36 30 45 
-2.24491 0.220002 5.22842 22 39 65 
-2.11942 0.223972 5.21928 21 22 39 
-2.22549 0.231025 5.20134 150 149 203 
-2.13099 0.233123 5.19985 165 184 252 
1.47937 0.209041 4.50876 138 117 133 
1.62544 0.207672 4.47252 146 122 133 
-0.72443 0.223796 4.64869 150 96 113 
-2.23276 0.254608 5.22762 42 55 113 
-2.13479 0.253449 5.19948 21 44 106 
-1.9501 0.283187 5.17596 63 46 65 
-2.19523 0.287973 5.20391 21 25 49 
1.2973 0.251553 4.53556 109 101 122 
-2.18299 0.300153 5.20263 162 176 237 
-2.11809 0.312265 5.19676 56 55 95 
-2.13821 0.324476 5.19813 14 26 84 
1.215 0.297078 4.54645 89 67 88 
-2.22647 0.34476 5.20348 157 160 223 
-2.13833 0.34271 5.19859 158 180 248 
-2.25226 0.348236 5.22733 17 22 48 
-2.25467 0.354825 5.20563 52 56 77 
0.705453 0.300993 4.29404 70 38 46 
-2.20246 0.371126 5.20229 152 156 206 
-2.15006 0.371125 5.19844 157 179 231 
-2.14589 0.379233 5.19773 26 30 57 
-0.302906 0.325556 4.4108 90 76 107 
-2.13361 0.387329 5.19629 16 21 38 
-0.323687 0.334645 4.42386 130 133 172 
-1.11845 0.350095 4.57425 60 29 41 
-0.399031 0.343354 4.44839 97 51 67 
-0.255819 0.341209 4.39903 127 145 191 
0.525261 0.335101 4.24592 98 52 66 
0.936067 0.331411 4.17124 81 39 49 
-1.0362 0.366065 4.56023 72 30 39 
-0.966652 0.363804 4.53953 90 48 67 
-0.61141 0.360862 4.48562 111 62 77 
-1.33377 0.372629 4.60569 121 81 91 
-1.02726 0.371668 4.55111 114 68 74 
0.0965285 0.354387 4.33552 117 71 84 
-1.47155 0.38295 4.63615 67 44 56 
-1.34135 0.380078 4.60789 99 61 71 
0.382733 0.354223 4.29338 87 45 54 
0.444371 0.352277 4.26571 119 69 85 
-1.02029 0.378609 4.55047 100 45 54 
-0.981727 0.37879 4.54594 104 57 71 
0.0900233 0.360859 4.33597 138 93 108 
0.732707 0.350898 4.20952 66 32 41 
0.800243 0.350405 4.19875 105 56 71 
-0.536894 0.375141 4.45465 92 51 68 
0.387794 0.359396 4.27803 108 71 82 
0.439514 0.359963 4.28086 141 94 109 
-2.07662 0.439902 5.19071 111 99 112 
0.0478114 0.370147 4.35293 98 56 70 
0.0834644 0.368913 4.33607 115 68 84 
0.741216 0.356312 4.20392 108 70 81 
0.791393 0.357005 4.20203 131 85 96 
-0.179251 0.374908 4.38716 90 57 75 
0.174361 0.370325 4.32689 82 49 68 
0.306266 0.369476 4.30736 100 57 68 
0.43181 0.365264 4.26829 122 70 86 
0.394079 0.368949 4.27648 60 32 41 
-0.0405342 0.379703 4.35752 128 96 111 
0.787591 0.364885 4.1985 82 40 53 
0.875644 0.365372 4.18217 67 39 51 
-2.4756 0.462537 5.26771 135 117 142 
-0.0339699 0.42505 4.35635 116 69 89 
0.314736 0.422797 4.29051 117 65 77 
0.309358 0.430706 4.30541 141 90 105 
0.672456 0.422533 4.22852 99 48 63 
-0.401912 0.447165 4.44275 92 45 61 
0.219502 0.434666 4.31955 135 86 99 
-0.0437861 0.441193 4.3564 108 62 82 
0.205932 0.439749 4.30724 111 63 74 
0.273254 0.439256 4.29722 92 46 56 
0.660318 0.435617 4.23219 106 50 63 
0.5205 0.440486 4.25903 91 45 58 
0.378127 0.452558 4.27784 99 69 84 
0.73528 0.451024 4.20609 93 62 76 
-1.87763 0.557815 5.15817 50 42 57 
-1.9028 0.56388 5.14238 45 39 53 
-0.0405521 0.478366 4.35519 90 49 62 
0.300942 0.472769 4.27777 72 39 50 
1.33372 0.545301 4.50885 121 114 137 
1.57509 0.544582 4.48219 78 58 76 
1.373 0.560937 4.50432 134 127 156 
1.34241 0.567228 4.5153 113 103 130 
1.65646 0.565154 4.47452 130 125 148 
-2.32906 0.666811 5.22289 125 119 144 
-1.92261 0.699 5.1436 68 50 58 
-1.84863 0.713784 5.14221 41 28 37 
0.773253 0.655067 4.1723 86 40 50 
0.230826 0.619425 3.4663 120 68 83 
1.25351 0.849757 4.52504 103 95 109 
-0.231218 0.647294 3.40281 105 51 68 
1.81885 0.853198 4.40354 48 37 45 
1.45227 0.869528 4.46692 115 91 111 
1.4924 0.871603 4.45641 64 49 72 
1.29237 0.895811 4.51823 111 103 134 
-0.228572 0.705161 3.40198 78 46 62 
0.737639 0.863698 4.16597 65 44 49 
-0.0111154 0.706439 3.35864 100 51 60 
-0.844434 0.745615 3.5175 86 48 62 
-0.230549 0.742113 3.39268 77 52 66 
-0.196868 0.739667 3.38419 106 66 86 
-0.011106 0.741374 3.35805 97 52 70 
1.57955 0.979214 4.35497 126 110 124 
0.00394581 0.755634 3.34783 114 62 74 
1.92391 0.980979 4.27643 68 46 58 
2.09456 0.972826 4.24456 43 33 48 
1.94334 0.990402 4.29097 18 20 34 
2.07885 0.978714 4.24511 39 32 70 
-0.917452 0.818368 3.52367 91 49 67 
1.91376 0.998804 4.2754 77 55 70 
-0.661847 0.81478 3.47486 93 48 59 
-0.222822 0.79489 3.39188 102 52 65 
1.93655 1.01008 4.29749 17 19 41 
2.08487 1.0013 4.24432 87 81 160 
2.08969 1.00011 4.24121 25 22 80 
2.08174 1.00435 4.2315 129 145 214 
0.228119 0.826149 3.46577 95 44 61 
0.00646565 0.815333 3.34658 76 42 58 
2.02477 1.04578 4.25884 158 183 246 
2.0097 1.05019 4.24718 70 52 131 
1.91516 1.08167 4.28569 72 51 65 
2.0873 1.07479 4.22973 155 172 238 
2.09966 1.07487 4.229 49 22 76 
2.05617 1.0882 4.2442 16 26 67 
2.07481 1.09136 4.24315 155 173 241 
1.96932 1.10598 4.27731 143 167 219 
-0.739017 1.03623 3.42029 125 140 160 
-0.408337 1.0188 3.24481 51 31 105 
-0.342877 1.02534 3.24783 58 73 127 
-0.42526 1.03092 3.2433 194 210 255 
0.76425 -1.5999 4.76484 87 68 88 
0.629293 -1.593 4.78422 94 74 99 
0.715813 -1.52895 4.75706 104 75 94 
0.662315 -1.53018 4.77344 98 67 91 
0.699196 -1.48648 4.76079 81 60 80 
1.77356 -1.4252 4.56463 45 35 57 
1.84586 -1.41049 4.53974 54 42 65 
1.51258 -1.41967 4.597 47 41 59 
0.601143 -1.42474 4.76626 135 118 139 
0.657741 -1.41722 4.77149 66 52 72 
-1.24303 -1.45183 5.12142 131 103 118 
0.706798 -1.33836 4.75418 115 82 99 
-1.25221 -1.41655 5.13972 67 45 57 
-0.280812 -1.25047 4.56961 85 47 57 
-1.38959 -1.40505 5.15095 79 58 68 
1.50003 -1.19069 4.59686 124 107 122 
-2.45461 -1.37617 5.36732 131 107 123 
1.50414 -1.16962 4.59683 60 48 65 
0.0557601 -1.08307 4.45982 145 89 102 
-0.0490829 -1.08563 4.48204 50 26 36 
0.0316051 -1.08077 4.46123 152 101 116 
-0.500104 -1.10059 4.5776 124 81 92 
-0.0207514 -1.07616 4.48106 83 42 50 
0.0597691 -1.06708 4.45922 138 87 100 
-0.0571619 -1.0694 4.48186 86 47 53 
-0.512234 -1.08762 4.57538 61 27 37 
0.0437006 -1.05889 4.46002 58 30 38 
0.492693 -1.04287 4.41098 67 29 36 
-0.700876 -1.08901 4.62277 77 39 48 
1.52203 -1.06587 4.57576 123 102 115 
-0.00864174 -1.0402 4.47985 77 39 54 
1.20872 -1.07297 4.64016 130 107 122 
1.60654 -1.05333 4.55802 54 48 56 
-0.0370557 -1.0317 4.49837 100 67 83 
1.47575 -1.05227 4.58575 71 59 78 
1.51507 -1.04549 4.57976 69 56 73 
-0.5121 -1.04106 4.57472 119 72 80 
-2.29957 -1.19452 5.31107 69 56 72 
0.882148 -1.0586 4.70613 119 92 117 
1.15573 -1.04539 4.64579 70 43 54 
0.905749 -1.04423 4.69643 119 83 98 
0.0277169 -0.986483 4.47702 74 35 46 
1.74653 -0.907256 4.50565 132 113 135 
1.71025 -0.881372 4.53873 137 123 141 
-2.30115 -1.02104 5.33738 56 49 65 
1.37954 -0.882082 4.6099 98 69 79 
1.50594 -0.875192 4.58958 126 110 124 
1.30767 -0.867406 4.62032 97 93 109 
0.229649 -0.854265 4.64139 80 34 41 
0.718131 -0.86037 4.716 113 90 108 
0.708994 -0.860186 4.74023 71 53 76 
0.757767 -0.858355 4.72444 90 60 84 
0.900565 -0.830203 4.66974 83 67 90 
-0.281688 -0.798539 4.65333 78 39 45 
-1.48804 -0.859268 5.13855 80 68 84 
-0.229767 -0.763814 4.62188 115 66 74 
-0.364983 -0.764622 4.64502 73 38 45 
-0.450273 -0.761939 4.66105 75 38 46 
-0.356671 -0.760788 4.6458 59 27 32 
-1.36452 -0.821453 5.11 88 75 98 
-0.17137 -0.743643 4.62007 119 68 75 
-0.345537 -0.745658 4.66573 117 64 73 
1.83102 -0.693992 4.49371 65 52 69 
0.844864 -0.693824 4.6878 114 81 92 
1.01989 -0.677342 4.65695 132 114 137 
-0.450089 -0.669354 4.65914 78 37 49 
-1.79815 -0.736353 5.19123 82 67 86 
0.836844 -0.6493 4.6901 148 126 147 
-1.88505 -0.690624 5.2243 126 108 130 
-0.871972 -0.628834 4.83183 73 38 44 
0.372264 -0.590092 4.59368 80 42 50 
1.01915 -0.547406 4.65357 131 125 147 
1.1813 -0.530357 4.61488 123 108 129 
-0.225181 -0.518142 4.6131 59 36 36 
1.50021 -0.510155 4.54723 68 56 73 
-1.73889 -0.50204 5.182 69 61 88 
-0.343674 -0.441416 4.64043 156 142 126 
-0.38097 -0.415923 4.636 134 100 94 
-0.621664 -0.408655 4.65407 74 38 45 
1.24658 -0.38574 4.5949 83 60 65 
-0.508511 -0.375097 4.65553 75 35 45 
1.30144 -0.364356 4.58381 126 109 134 
