ply
format ascii 1.0           { ascii/binary, format version number }
comment made by Greg Turk  { comments keyword specified, like all lines }
comment this file is a cube
element vertex 1284
property float x
property float y
property float z
property uchar red
property uchar green
property uchar blue
end_header
-0.168775 -0.107567 4.56382 76 29 45 
6.55638 -0.408414 18.3057 108 106 148 
5.93688 -0.353685 18.1636 68 86 128 
6.02479 -0.347153 18.1204 110 103 155 
10.9833 -0.323613 22.1469 123 128 172 
6.04353 -0.221178 18.1425 120 117 162 
6.1091 -0.211331 18.2026 68 68 101 
6.20781 -0.212501 18.2919 71 70 106 
0.164404 -0.0342965 4.77735 174 169 150 
-1.67425 -0.0187051 3.21719 98 89 110 
-1.67065 -0.0166926 3.21801 65 58 76 
-1.67953 -0.0146363 3.21574 112 105 125 
6.76339 -0.0398596 18.4639 82 81 119 
8.8464 -0.0242457 20.2408 116 110 132 
6.04717 -0.00499095 18.1534 113 105 151 
6.1293 -0.00505836 18.2286 68 79 113 
6.21172 -0.00512545 18.3033 77 74 115 
6.24475 -0.00515217 18.333 69 69 112 
6.27785 -0.00517887 18.3627 74 97 138 
0.0208058 0.00251726 4.77204 114 96 82 
6.17872 0.0163252 18.2736 143 164 206 
0.249657 0.00976004 4.74886 117 109 106 
0.193228 0.014149 4.75005 87 73 64 
0.220622 0.0141589 4.76352 83 74 69 
6.76155 0.155724 18.5223 118 116 148 
6.61412 0.177284 18.4026 102 94 135 
-0.0237673 0.0556323 4.72313 81 41 51 
0.112885 0.0637871 4.74901 90 82 85 
6.16606 0.255498 18.27 118 127 189 
6.23219 0.256364 18.33 79 77 119 
0.0504255 0.0738727 4.74649 106 84 66 
0.0831261 0.0783273 4.74791 123 106 86 
6.06844 0.312242 18.1832 109 105 153 
6.15083 0.313592 18.2587 89 100 141 
-0.0325879 0.0978783 4.7131 127 75 87 
0.917759 0.127067 5.91065 124 91 107 
-0.355808 0.100224 4.5082 105 54 59 
0.936874 0.149991 5.89108 154 118 136 
1.49493 0.177895 7.02228 68 49 68 
6.6205 0.46714 18.4202 108 105 144 
10.9305 0.570122 21.9852 113 112 158 
6.0886 0.518939 18.2093 79 71 114 
6.24194 0.519731 18.2242 70 84 119 
-0.717337 0.135375 3.88277 69 36 45 
0.78336 0.209903 5.90172 77 36 48 
0.648464 0.205457 5.72247 75 34 50 
10.7524 0.854464 21.5999 108 111 153 
-0.0904407 0.194262 4.65423 76 42 57 
6.64179 0.763922 18.4476 104 99 132 
0.118388 0.21128 4.85168 56 23 32 
6.09217 0.78958 18.2202 86 81 131 
6.17492 0.793083 18.2964 75 95 135 
6.26233 0.791521 18.2506 86 103 145 
6.85874 0.803375 18.4094 109 114 145 
0.941841 0.266703 5.87603 151 111 130 
-1.5069 0.160364 3.39399 52 47 69 
0.941962 0.273864 5.83134 101 47 67 
0.959521 0.282826 5.82696 161 123 145 
6.35503 0.900312 18.3866 200 200 237 
10.745 1.06553 21.7491 109 78 100 
0.874511 0.300234 5.89344 77 29 37 
-0.18154 0.233404 4.52771 134 79 92 
-1.51399 0.176111 3.37665 52 54 75 
0.00284017 0.244678 4.67616 97 43 56 
-0.177754 0.240448 4.50366 100 43 54 
0.956116 0.310839 5.80628 149 112 127 
-1.56498 0.181881 3.31887 41 32 70 
-1.55724 0.181993 3.32008 115 106 155 
-1.51528 0.185277 3.38426 115 139 200 
-1.59659 0.182153 3.2898 31 40 65 
-1.56397 0.185713 3.31234 28 31 72 
5.09246 0.59738 10.631 143 132 135 
9.80291 1.09053 19.3041 95 80 101 
0.96306 0.345211 5.8044 163 116 137 
-1.58956 0.201933 3.30085 17 31 60 
-1.49165 0.208372 3.40772 14 20 39 
-1.49752 0.214176 3.39201 163 183 249 
7.22912 1.16126 18.153 157 128 137 
7.32004 1.19397 18.2949 67 26 35 
0.00858662 0.309181 4.61148 94 46 58 
0.963205 0.395615 5.78337 78 37 49 
-7.31545e-05 0.322188 4.58959 118 64 77 
-1.33953 0.260499 3.60728 116 100 118 
-0.168489 0.318793 4.40913 128 72 83 
7.32232 1.31773 18.3008 82 44 68 
6.51464 1.38007 18.1893 85 52 75 
0.019977 0.365566 4.5742 82 37 43 
0.727024 0.423998 5.32651 88 52 68 
-0.741944 0.297366 3.70248 107 53 68 
-1.53117 0.27148 3.34493 164 185 245 
6.68329 1.44427 17.7303 68 80 106 
-0.164864 0.36125 4.38625 90 37 49 
6.32699 1.48074 18.0117 76 49 72 
0.202672 0.404029 4.69237 123 77 90 
6.40521 1.56045 18.2022 71 52 73 
6.15754 1.572 17.7507 87 65 91 
7.35771 1.52573 17.1543 91 102 121 
0.259466 0.427952 4.76403 88 47 62 
-0.0683485 0.396155 4.36291 97 52 69 
0.367167 0.447375 4.88722 87 45 61 
6.24092 1.64787 17.8944 58 44 65 
-0.428799 0.382882 3.91267 95 57 69 
0.89538 0.547991 5.52133 88 42 60 
-1.57775 0.331778 3.2807 55 48 74 
-1.48537 0.342784 3.39353 23 35 86 
-0.593608 0.377599 3.71738 67 39 45 
-1.56589 0.337249 3.29025 136 140 204 
-0.481544 0.399986 3.84487 77 44 57 
0.424245 0.515481 4.94609 85 43 61 
-0.53223 0.400339 3.79412 64 38 40 
-1.50289 0.369574 3.38029 116 151 210 
-1.54699 0.368534 3.31606 135 133 185 
-1.55191 0.369385 3.30891 18 15 40 
0.474106 0.57146 5.01475 87 49 59 
0.262105 0.54573 4.75748 97 53 75 
-1.49542 0.395013 3.38749 23 26 50 
6.91108 1.89159 16.0426 112 124 158 
-0.00558745 0.536123 4.43211 100 51 73 
-1.21466 0.465169 3.75913 45 40 46 
-0.0628629 0.554633 4.36338 105 52 68 
-0.426138 0.501848 3.91118 70 34 43 
-1.53152 0.93566 3.33207 76 55 67 
0.763021 1.03679 3.56308 103 59 72 
8.89153 -6.89823 20.4839 155 152 176 
9.97233 -7.21637 21.4506 145 159 210 
7.88338 -6.60786 19.6957 156 172 225 
6.23471 -6.20833 18.5349 107 110 168 
10.0304 -7.18739 21.4717 117 106 168 
5.97557 -6.07386 18.2122 167 175 225 
9.19414 -6.8647 20.6447 173 168 174 
10.3009 -7.26688 21.8395 77 67 129 
10.3779 -7.25436 21.8637 122 140 179 
9.05895 -6.71709 20.5845 139 133 138 
12.144 -7.5107 23.1641 126 134 182 
9.33018 -6.78013 20.95 133 107 121 
-1.02779 -1.3165 4.07619 132 117 140 
5.78501 -5.81088 18.0447 144 162 220 
5.99904 -5.82201 18.2419 158 164 222 
11.4857 -7.11056 22.4558 125 98 109 
11.7549 -7.22679 22.8142 133 119 122 
10.1889 -6.73218 21.5682 107 112 168 
11.0182 -6.85145 22.0932 151 139 146 
12.2578 -7.18044 23.2146 96 90 133 
12.3228 -7.17237 23.206 117 146 187 
12.5962 -7.24137 23.587 75 70 134 
-0.708584 -1.36287 4.45847 59 42 63 
6.2184 -5.6396 18.4453 104 103 161 
10.8904 -6.70726 22.0702 154 155 186 
11.3436 -6.76587 22.4749 140 129 138 
11.4561 -6.71963 22.4969 140 122 133 
6.44024 -5.41923 18.327 114 114 147 
11.7906 -6.7567 22.8832 125 104 118 
10.1147 -6.34096 21.5824 106 98 161 
6.38361 -5.33458 18.2831 124 115 168 
-1.0167 -1.1922 4.09416 112 104 126 
0.189344 -1.41762 4.88776 77 38 59 
-1.68344 -0.936126 3.23952 78 70 95 
9.95788 -6.20567 21.5242 90 86 142 
7.06559 -5.41323 18.8187 120 103 148 
12.6312 -6.80333 23.6524 121 120 181 
7.26132 -5.43861 18.9605 102 82 127 
7.16375 -5.40329 18.8911 146 139 175 
7.32034 -5.41895 19.0027 133 116 159 
-1.05815 -1.13711 4.01768 70 56 71 
7.24183 -5.37363 18.9841 106 81 114 
7.35925 -5.37999 19.1037 178 207 243 
8.1806 -5.48671 19.5572 140 130 177 
7.47548 -5.40465 19.2925 94 100 148 
-0.92207 -1.17083 4.1962 61 41 57 
6.34934 -5.10265 18.2637 151 159 213 
-1.37097 -1.00823 3.6308 57 42 67 
7.23705 -5.30789 19.1223 163 150 193 
7.38775 -5.24169 18.8831 158 171 215 
5.73914 -4.89848 17.7353 131 147 194 
9.82825 -5.86802 21.2442 107 100 151 
5.79591 -4.9013 17.7869 179 194 237 
-0.0660526 -1.23702 4.52954 83 50 67 
7.44396 -5.21994 19.1001 157 170 215 
-0.99693 -1.11115 4.07581 91 61 81 
7.54321 -5.2137 19.1698 52 57 86 
8.20782 -5.32797 19.5869 111 96 99 
8.5848 -5.49111 20.1968 112 94 134 
9.83442 -5.78039 21.2573 127 124 171 
8.14851 -5.29687 19.5507 117 119 129 
6.05326 -4.91591 18.1988 181 202 245 
7.95361 -5.24748 19.4335 141 140 126 
8.071 -5.26918 19.5054 111 89 96 
-0.0151793 -1.23152 4.56995 137 92 112 
7.6225 -5.18304 19.2245 64 54 79 
10.1568 -5.83449 21.6377 117 105 168 
5.9425 -4.85825 18.07 181 195 236 
7.74002 -5.18626 19.3014 118 89 95 
8.0147 -5.23833 19.4753 185 180 169 
7.44648 -5.12068 19.1066 101 89 134 
7.48148 -5.16004 19.3081 195 209 249 
7.82017 -5.16117 19.3562 73 49 75 
8.04072 -5.25065 19.6823 174 171 155 
8.19133 -5.22261 19.5827 93 82 73 
5.79853 -4.72901 17.7949 164 167 207 
7.46753 -5.08489 19.1237 149 152 192 
8.65182 -5.32366 20.0357 167 156 198 
-1.30451 -0.981697 3.70564 86 73 102 
7.60499 -5.09257 19.2168 87 86 75 
7.64351 -5.0937 19.2412 83 79 74 
8.35781 -5.26699 19.8736 137 131 125 
7.38973 -5.04236 19.0712 169 163 188 
6.95834 -4.94416 18.7584 168 163 167 
1.24264 -1.78969 6.81583 64 46 76 
7.36788 -5.02387 19.1262 200 216 250 
8.20079 -5.1977 19.7831 68 45 61 
8.65473 -5.26825 20.0424 161 179 214 
8.75124 -5.27663 20.0912 104 75 138 
6.93916 -4.90769 18.7446 115 103 133 
7.60693 -5.03922 19.2217 82 81 94 
7.09644 -4.92828 18.8631 159 141 183 
7.6657 -5.03074 19.2605 85 74 70 
7.87049 -5.10357 19.517 203 198 220 
8.49902 -5.20082 19.9597 156 146 149 
6.96007 -4.87888 18.763 147 136 170 
7.82312 -5.02697 19.3636 178 190 229 
8.30145 -5.15333 19.8461 157 156 169 
8.68189 -5.22866 20.1405 74 81 116 
-1.58385 -0.867534 3.3479 77 63 88 
7.68686 -4.99437 19.2772 165 170 167 
8.40134 -5.15658 19.906 178 173 175 
8.59763 -5.18218 20.0148 98 77 92 
7.08838 -4.82598 18.6924 176 175 168 
8.30335 -5.11208 19.8506 119 97 98 
8.2244 -5.08455 19.8042 149 142 126 
1.42405 -1.79973 7.05478 91 72 97 
6.08752 -4.60853 18.0571 152 159 205 
8.345 -5.07757 19.8787 150 158 187 
6.06908 -4.55351 18.0426 183 199 246 
7.13812 -4.76479 18.9361 113 104 145 
7.1108 -4.70662 18.7144 189 202 242 
7.92642 -4.88999 19.4384 133 119 126 
10.6252 -5.49304 21.832 111 99 135 
6.20424 -4.55429 18.1604 150 151 198 
6.45584 -4.60598 18.3715 156 160 213 
8.56639 -4.97468 20.012 134 133 158 
7.61291 -4.77911 19.3471 94 77 105 
7.96953 -4.82709 19.5442 125 114 112 
8.76496 -4.94202 20.1226 199 206 246 
7.90991 -4.75182 19.4339 174 159 147 
7.77388 -4.70739 19.3497 160 142 164 
0.399741 -1.22449 5.08504 53 31 44 
7.95489 -4.73472 19.6532 94 79 94 
7.97214 -4.6807 19.4788 154 148 134 
6.3237 -4.37837 18.269 142 134 170 
8.65097 -4.80586 20.0687 114 121 130 
7.18515 -4.52469 18.9476 133 145 184 
8.59236 -4.78308 20.0376 115 99 95 
8.51445 -4.74329 19.9961 155 152 145 
7.38332 -4.51585 19.0918 120 110 114 
7.52155 -4.541 19.1882 163 160 155 
8.61428 -4.70946 20.0536 121 113 133 
7.10829 -4.42438 18.8947 166 160 157 
7.36478 -4.47232 19.0809 151 149 141 
8.36718 -4.62069 19.7198 112 87 93 
-0.84176 -0.999772 4.28498 109 88 105 
6.79409 -4.35586 18.6558 138 140 180 
6.86692 -4.32763 18.5495 178 176 164 
6.92499 -4.33878 18.5932 138 131 134 
-1.65748 -0.760011 3.26519 90 71 96 
8.55688 -4.65893 20.0251 143 145 154 
5.81749 -4.15936 17.9776 35 31 54 
8.32954 -4.55326 19.701 180 192 230 
6.85414 -4.31533 18.7049 72 59 88 
8.93814 -4.64587 20.2754 198 220 255 
6.95339 -4.28916 18.7831 118 104 117 
8.42971 -4.51275 19.7622 160 141 133 
5.83812 -4.07024 17.9995 99 100 134 
6.85065 -4.18862 18.5432 72 51 63 
6.10442 -4.14413 18.3943 42 42 75 
8.60196 -4.51845 20.06 116 93 93 
6.81283 -4.14254 18.5162 160 148 132 
7.95817 -4.3192 19.3029 170 159 175 
9.9358 -4.72912 21.1335 135 130 175 
-1.2325 -0.84506 3.80116 124 103 118 
8.12058 -4.35664 19.5897 127 125 129 
7.64905 -4.23039 19.1105 156 146 158 
12.3249 -5.1166 23.1119 150 159 213 
7.98979 -4.28529 19.7394 136 133 144 
6.11316 -3.93488 18.2553 67 73 123 
7.74994 -4.15647 19.3626 112 100 100 
7.07808 -4.02987 18.8899 148 143 156 
7.15508 -4.05029 18.9812 157 148 161 
8.80677 -4.21646 19.7752 153 145 160 
6.05441 -3.89223 18.3265 133 137 196 
6.85613 -3.94368 18.5581 167 159 156 
8.11119 -4.19744 19.7461 133 126 132 
7.73194 -4.09931 19.3539 84 75 85 
7.97187 -4.16773 19.6952 124 103 110 
0.397918 -1.07836 5.11129 102 64 81 
7.07055 -3.94886 18.7196 103 82 76 
6.91525 -3.91492 18.6046 103 94 120 
9.29726 -4.29537 20.4284 122 104 132 
7.09066 -3.92596 18.7356 90 57 61 
7.77226 -4.10166 19.5653 113 98 113 
-1.28493 -0.772818 3.71321 93 67 83 
7.28652 -3.91269 18.8782 179 165 155 
9.18359 -4.22272 20.3806 97 72 78 
7.34574 -3.89561 18.9212 136 122 116 
9.85643 -4.35144 21.1335 180 193 231 
10.4837 -4.44358 21.6083 129 133 183 
9.91456 -4.3352 21.1561 182 197 238 
9.99262 -4.3427 21.1867 141 148 195 
6.92388 -3.83728 18.7797 194 188 176 
6.82553 -3.80822 18.7036 121 120 155 
7.11311 -3.80531 18.7577 126 96 108 
12.4268 -4.69974 23.1723 152 163 201 
0.739717 -1.12599 5.57389 67 32 39 
6.78278 -3.7372 18.5102 146 150 150 
6.97709 -3.76985 18.6578 150 144 168 
6.19082 -3.69786 18.3636 101 103 160 
7.99905 -3.93776 19.7258 52 50 100 
9.80142 -4.21322 21.1179 130 117 152 
0.246527 -1.01108 5.07918 68 38 52 
10.5326 -4.29606 21.6417 125 118 156 
8.0609 -3.90498 19.7684 138 160 201 
8.12178 -3.89961 19.8081 68 55 104 
10.4576 -4.22206 21.6213 133 136 161 
6.00166 -3.53811 18.1671 109 106 160 
9.89579 -4.13744 21.2867 53 32 72 
6.78618 -3.57595 18.5195 129 129 141 
8.14408 -3.82673 19.8262 94 95 145 
10.0871 -4.14468 21.4899 103 121 148 
10.4024 -4.17213 21.6078 80 58 76 
6.2027 -3.50316 18.1961 151 178 218 
6.82559 -3.56358 18.5509 152 143 145 
9.14081 -3.86381 20.3876 89 78 115 
10.3486 -4.09193 21.5973 74 91 113 
10.0313 -4.0419 21.4742 98 96 138 
8.14774 -3.7094 19.8351 82 67 123 
8.00749 -3.66287 19.7466 158 167 211 
8.189 -3.68689 19.8629 182 191 236 
9.32778 -3.82247 20.7007 179 179 187 
-1.46453 -0.642428 3.48959 111 93 117 
9.16572 -3.68868 20.4092 99 88 119 
9.82182 -3.80031 21.1618 148 135 170 
10.0176 -3.81032 21.2397 175 189 237 
8.25411 -3.54895 19.9119 171 188 234 
1.16414 -1.1856 6.71767 133 118 138 
12.1534 -4.03452 22.8873 139 126 161 
12.4137 -4.09906 23.246 130 155 194 
0.163259 -0.869164 4.98446 62 32 42 
9.15232 -3.55812 20.4134 131 131 163 
8.41785 -3.47166 20.0167 189 192 228 
9.86857 -3.62668 21.194 118 120 172 
8.38014 -3.39687 19.9985 182 196 232 
10.2899 -3.64866 21.6106 104 111 163 
0.271578 -0.862279 5.11991 79 45 62 
8.12051 -3.28239 19.8415 95 88 144 
10.208 -3.51155 21.3375 185 202 243 
10.0532 -3.46322 21.2815 131 135 187 
8.18306 -3.2275 19.8848 133 160 203 
8.22351 -3.23213 19.9104 123 127 168 
8.26392 -3.23671 19.9357 89 101 153 
8.12298 -3.20039 19.8475 120 110 166 
10.3177 -3.49146 21.6349 95 98 149 
8.247 -3.13028 19.931 78 69 129 
9.90374 -3.30201 21.2352 122 128 177 
12.5182 -3.61999 23.3104 145 149 201 
8.28897 -3.08643 19.9599 174 190 237 
8.14877 -3.02135 19.8741 78 73 136 
-0.835084 -0.644645 4.26704 117 105 127 
12.5456 -3.50562 23.3288 79 65 131 
8.15435 -2.84137 19.8877 104 94 151 
8.14906 -2.81463 19.6944 124 123 171 
5.94708 -2.52988 18.0018 157 156 205 
8.15819 -2.79105 19.9703 205 221 254 
8.21769 -2.77134 19.9326 161 179 218 
8.27562 -2.76664 19.8919 146 162 208 
6.73131 -2.4895 18.5218 188 194 230 
8.10032 -2.34673 17.7109 159 152 178 
7.66748 -2.34237 17.8185 139 147 176 
8.44075 -2.37071 18.0114 117 138 167 
7.13839 -2.32543 17.9021 173 194 231 
6.43417 -2.35678 18.232 99 66 95 
6.63521 -2.36134 18.4482 100 66 84 
8.66749 -2.31298 18.0891 84 83 113 
9.12036 -2.35066 18.3994 169 145 167 
7.13503 -2.2718 18.0295 97 107 151 
8.55709 -2.28192 18.0569 100 94 141 
8.08865 -2.22218 17.7146 177 159 185 
8.70088 -2.27044 18.102 91 96 134 
8.79593 -2.26192 18.1297 110 94 129 
7.11283 -2.27453 18.4644 111 108 136 
8.76569 -2.23491 18.1235 161 182 213 
8.81337 -2.22415 18.1376 177 194 227 
-1.03857 -0.451477 4.00105 74 62 84 
1.19462 -0.755977 6.71837 64 50 68 
7.11778 -2.06939 18.4773 105 99 124 
8.24347 -1.98073 17.7901 183 194 226 
7.24566 -2.02057 18.2745 176 197 240 
8.36789 -1.96933 17.9423 131 128 172 
7.2481 -1.97531 18.2461 148 163 203 
7.86126 -1.89322 17.4755 142 114 128 
8.37391 -1.93089 17.8402 184 183 215 
8.57955 -1.93979 17.9056 178 190 229 
7.25087 -1.95482 18.1842 165 188 230 
9.24694 -1.97187 18.4589 179 197 236 
5.9838 -1.89786 17.9093 145 149 187 
0.0571644 -0.500654 4.87022 168 154 145 
7.47348 -1.77811 17.3678 118 110 128 
7.68903 -1.82449 18.0261 163 131 144 
0.135292 -0.488796 4.91886 202 194 173 
-0.492462 -0.421076 4.38712 104 58 58 
7.96542 -1.69026 17.5313 173 149 162 
-1.14918 -0.364282 3.85812 59 43 54 
7.01779 -1.73385 18.3249 143 110 116 
-1.59062 -0.312686 3.33125 42 33 50 
6.82035 -1.63747 17.8444 146 113 120 
7.87312 -1.55541 17.5019 157 153 133 
-0.331141 -0.398046 4.57208 47 18 26 
0.0678045 -0.423756 4.85013 193 184 157 
6.6355 -1.60679 18.4489 68 45 66 
7.685 -1.53831 17.6134 118 108 94 
-1.10064 -0.328592 3.91225 131 108 125 
6.81141 -1.50083 17.9979 133 125 100 
6.92082 -1.51057 18.1073 166 151 127 
7.89161 -1.47147 17.7806 125 112 92 
6.668 -1.49464 18.1973 119 114 95 
7.79555 -1.46132 17.836 96 97 90 
6.75132 -1.51131 18.577 40 30 43 
9.81622 -1.53412 19.0247 130 119 114 
7.97628 -1.3997 17.5553 96 90 74 
6.32033 -1.44226 18.22 138 152 194 
-1.22904 -0.295109 3.76486 78 56 68 
6.83142 -1.41206 18.0152 123 121 98 
6.89194 -1.43271 18.4675 126 112 89 
6.17191 -1.36924 18.0658 166 179 222 
6.78003 -1.38083 18.3524 55 37 33 
9.72809 -1.46547 19.4196 177 185 229 
9.82169 -1.43349 19.0353 118 121 104 
9.76055 -1.38963 18.8073 90 75 61 
-0.411673 -0.313711 4.47589 60 27 36 
8.10918 -1.24269 17.7889 134 118 108 
0.0564703 -0.333333 4.81297 163 148 117 
-1.42164 -0.241915 3.5268 55 39 50 
9.70147 -1.30434 19.2509 178 188 234 
-1.48069 -0.222284 3.44854 59 47 65 
9.84702 -1.26015 19.5106 144 138 186 
9.74745 -1.19078 19.0022 105 107 102 
-0.495494 -0.270953 4.38438 69 39 52 
10.5803 -1.34642 21.7405 125 131 179 
6.64155 -1.01149 18.351 117 122 156 
6.72136 -0.931752 18.4185 117 118 151 
6.38268 -0.89051 18.4797 68 44 60 
10.4965 -0.924274 21.4032 102 92 123 
-1.42019 -0.145477 3.5301 41 35 52 
-0.485958 -0.18069 4.35828 55 20 27 
10.6135 -0.88906 21.4445 150 152 197 
10.4257 -0.825003 21.3899 112 99 119 
10.5369 -0.820885 21.6849 70 50 65 
6.56979 -0.681464 18.3048 106 103 148 
-1.42043 -0.113644 3.52411 60 57 80 
0.116996 -0.14432 4.92252 176 161 134 
-0.52066 -0.114557 4.32018 58 23 35 
-0.168934 -0.106837 4.55303 76 29 45 
6.69249 -0.434717 18.4153 119 123 155 
6.6878 -0.390767 18.289 75 71 103 
6.80807 -0.388942 18.3537 56 53 75 
-1.1888 -0.0631491 3.79948 47 39 53 
0.189816 -0.0726597 4.79965 187 180 170 
10.6948 -0.309467 21.576 123 124 170 
9.91071 -0.237602 20.7819 185 198 232 
0.16399 -0.0475876 4.78285 93 84 79 
0.103178 -0.0435163 4.79559 155 138 118 
0.224336 -0.0316584 4.7662 104 95 88 
-1.67312 -0.0177185 3.22041 67 60 80 
-0.211968 -0.003847 1.23519 58 25 34 
0.0960008 -0.0122649 4.79795 155 142 123 
8.50813 -0.0180334 19.4666 116 110 132 
0.19569 0.0141699 4.76654 72 57 50 
0.13432 0.0176699 4.7496 130 124 110 
0.140966 0.0312643 4.73331 61 46 48 
0.180734 0.0316964 4.75007 109 91 79 
0.158764 0.035106 4.73359 114 105 100 
6.5718 0.18565 18.3105 103 96 137 
0.109314 0.0631994 4.7489 96 90 90 
6.10191 0.248258 17.9403 74 72 113 
0.04862 0.0736021 4.74619 124 103 82 
-0.474422 0.0710426 4.37321 58 20 24 
5.93022 0.314182 17.7892 121 117 160 
-0.0225315 0.0937715 4.70865 50 20 28 
0.937919 0.148022 5.89783 154 118 136 
8.46673 0.543378 19.3389 128 122 144 
-1.07584 0.123841 3.92935 49 35 43 
6.02305 0.575971 18.027 96 87 138 
0.937456 0.200036 5.86717 108 63 74 
-0.490249 0.16434 4.36808 69 32 42 
-1.36911 0.138814 3.58406 60 51 72 
0.933123 0.227431 5.8955 135 88 102 
6.65818 0.725947 18.2829 115 119 152 
-1.35352 0.146738 3.58559 49 35 46 
-0.0920356 0.193582 4.6461 78 46 61 
6.58704 0.762164 18.3147 108 104 137 
6.02586 0.777626 18.0355 108 103 152 
5.99656 0.776123 17.8671 75 79 119 
6.13036 0.775913 17.9842 84 77 119 
-0.664815 0.180837 3.94335 153 109 127 
0.941925 0.273534 5.84017 101 46 67 
-1.60882 0.159063 3.28197 63 55 78 
0.963025 0.284303 5.8349 160 122 144 
10.6752 1.06169 21.6356 78 51 76 
-1.5729 0.166069 3.31017 34 28 60 
9.88739 0.967143 19.3606 99 72 105 
0.873959 0.299434 5.88473 83 32 40 
0.942162 0.296308 5.81439 90 34 37 
-1.51338 0.177072 3.37716 47 50 74 
-0.00125764 0.243698 4.66264 97 46 55 
0.95882 0.311397 5.80956 160 118 135 
9.89308 1.04302 19.3716 72 54 72 
7.03221 0.988113 18.1141 176 150 164 
9.62213 1.03558 19.009 159 176 214 
0.95884 0.334634 5.83624 108 52 65 
6.59305 1.06529 18.3314 108 104 143 
7.08871 1.05463 18.1545 172 166 164 
0.963061 0.346189 5.80879 163 116 137 
6.70824 1.10135 18.4588 136 144 182 
-1.5875 0.201802 3.29407 26 45 76 
-1.58114 0.202307 3.30146 124 115 176 
-1.50061 0.228303 3.3885 41 64 135 
9.50904 1.28383 19.0111 130 134 169 
7.23443 1.25855 18.1093 91 46 69 
6.62111 1.31523 18.1816 95 67 82 
7.18025 1.32324 18.0758 149 124 145 
6.49867 1.3814 18.1448 71 41 60 
1.05374 0.451598 5.70885 77 39 50 
-1.53085 0.271309 3.34328 167 186 249 
0.838698 0.442856 5.42754 118 68 87 
7.46917 1.41045 17.1785 87 95 110 
-1.5308 0.282779 3.34328 164 180 244 
-1.58126 0.285616 3.28628 38 40 64 
-0.220178 0.409024 4.1651 109 61 77 
-1.5688 0.326629 3.29638 23 49 105 
-1.57423 0.328835 3.29217 130 137 183 
-0.272803 0.409737 4.10922 82 40 49 
0.893022 0.547506 5.51111 90 48 65 
-1.48697 0.343441 3.3982 30 34 75 
-1.58238 0.336181 3.29372 29 25 51 
-0.163799 0.432436 4.24527 81 40 51 
-1.56467 0.337012 3.28787 146 149 211 
-0.482984 0.400437 3.84082 94 58 73 
-1.58966 0.35144 3.27303 28 31 50 
-1.50749 0.372282 3.37544 145 161 216 
-1.54654 0.368113 3.31781 141 150 204 
-0.429798 0.433571 3.90841 122 84 96 
-1.50407 0.38085 3.3679 20 27 47 
8.70364 1.88035 16.4384 102 110 120 
6.7498 1.8692 15.7969 127 148 183 
-0.00778731 0.532968 4.41664 103 61 83 
-0.0664828 0.553857 4.34933 85 40 61 
-1.46051 0.442614 3.43203 71 51 63 
-0.426869 0.503398 3.90878 63 33 41 
-0.621531 0.486267 3.67087 97 64 65 
-0.326235 0.548372 4.04484 82 41 58 
-0.590006 0.536979 3.71554 60 29 34 
-1.4101 0.593778 3.48592 104 85 104 
-1.43505 0.754595 3.44539 42 39 53 
8.05204 -6.74606 20.1169 155 171 222 
8.17579 -6.73423 20.1986 168 176 227 
10.5711 -7.37115 22.25 128 145 185 
6.25909 -6.1191 18.5659 91 91 147 
9.13249 -6.77025 20.7584 140 132 139 
10.5084 -7.23351 22.2444 90 104 153 
12.2632 -7.57256 23.3717 123 130 178 
6.24378 -5.94127 18.5205 93 100 154 
-0.992584 -1.31238 4.10338 123 98 118 
11.7495 -7.27553 22.9443 111 81 97 
12.0628 -7.41997 23.3911 128 122 126 
12.3632 -7.39365 23.4013 111 96 130 
11.0972 -6.9834 22.4615 146 143 178 
12.6192 -7.38173 23.8854 83 76 126 
-0.999571 -1.26337 4.10219 127 100 117 
-1.3673 -1.1133 3.63359 115 90 108 
10.2488 -6.69515 21.862 96 103 166 
11.3323 -6.95274 22.8956 134 121 143 
11.4392 -6.92178 22.8616 136 122 139 
-0.098424 -1.34131 4.51371 98 57 70 
12.6628 -7.11716 23.9269 79 90 145 
10.088 -6.46173 21.8127 102 98 156 
6.5381 -5.49665 18.5976 107 95 133 
11.8662 -6.79581 23.0103 125 110 124 
6.49209 -5.41503 18.5619 126 122 173 
7.18359 -5.49362 19.11 118 101 146 
7.37516 -5.51416 19.2502 82 60 106 
7.44826 -5.49831 19.3046 137 119 165 
7.56316 -5.42178 19.2427 136 117 161 
7.45263 -5.38613 19.2261 85 91 144 
-0.918686 -1.16941 4.18896 61 40 57 
8.03054 -5.56864 19.9287 109 97 135 
-1.37401 -1.00916 3.62576 51 42 61 
7.30475 -5.35232 19.2477 152 131 172 
7.66724 -5.40021 19.4628 188 203 246 
8.24009 -5.498 19.8276 189 202 246 
5.92569 -5.05092 18.2609 123 144 193 
7.31462 -5.24858 19.0921 121 104 153 
7.55324 -5.2706 19.1734 140 152 194 
7.90831 -5.39245 19.6254 178 167 201 
8.19457 -5.43972 19.804 57 61 99 
10.3049 -6.02625 21.9396 96 91 157 
-0.99868 -1.11468 4.08318 95 69 88 
6.00576 -4.95606 18.1545 125 143 194 
7.45932 -5.21296 19.11 139 147 193 
7.8135 -5.34064 19.5653 75 57 96 
7.66984 -5.29506 19.4694 61 66 98 
8.36422 -5.42112 19.9101 109 96 107 
7.79073 -5.30329 19.5524 145 129 155 
7.83882 -5.31292 19.5845 170 157 169 
8.29163 -5.38305 19.8655 154 154 156 
12.7258 -6.51204 24.0053 73 83 139 
7.71916 -5.27247 19.5053 53 54 75 
8.64457 -5.4749 20.3158 160 153 193 
7.4573 -5.17778 19.283 198 213 253 
7.57594 -5.21051 19.4088 84 70 119 
-1.06208 -1.07107 4.01667 53 40 49 
8.0866 -5.32959 19.9784 59 46 62 
8.31942 -5.30488 19.8889 93 82 73 
8.59665 -5.40708 20.2894 83 56 87 
9.00897 -5.54228 20.7759 136 117 163 
-1.30497 -0.984522 3.70898 84 71 100 
7.71894 -5.23944 19.7296 159 164 197 
7.36153 -5.10081 19.26 117 109 135 
7.07414 -5.03011 19.0474 164 158 162 
9.97127 -5.67693 21.5185 103 98 154 
7.60501 -5.07967 19.3048 63 58 91 
7.79528 -5.14877 19.5639 174 166 151 
8.55936 -5.27118 20.0307 76 53 80 
7.05069 -4.98561 19.0304 126 121 139 
8.35841 -5.28836 20.1559 74 52 71 
7.91584 -5.13121 19.6442 203 198 221 
8.89061 -5.34549 20.4605 182 202 237 
-1.15194 -1.01623 3.91558 69 46 56 
8.48139 -5.25123 20.2326 192 190 193 
8.98885 -5.32673 20.5161 94 62 114 
9.90453 -5.57831 21.4999 94 77 120 
7.31633 -4.97072 19.2325 193 184 176 
7.19659 -4.92951 19.1447 77 60 103 
7.5583 -4.98755 19.4084 205 214 252 
8.11743 -5.14299 20.01 107 112 149 
7.41415 -4.94229 19.3065 88 81 121 
8.89406 -5.2347 20.4685 109 117 158 
8.5082 -5.16276 20.253 156 153 176 
8.4357 -5.13333 20.2106 212 210 193 
8.62796 -5.13526 20.2769 107 91 91 
6.04757 -4.55783 18.1326 124 140 190 
6.55374 -4.68468 18.6421 151 160 211 
8.969 -5.15192 20.5133 124 134 178 
10.7874 -5.57502 22.1581 107 100 136 
6.24694 -4.57417 18.3825 191 206 251 
7.75529 -4.82243 19.5521 166 153 154 
8.21175 -4.89549 19.8456 170 167 155 
8.85459 -5.05711 20.4624 197 210 248 
5.99019 -4.45198 18.157 124 136 180 
7.58812 -4.76603 19.44 171 184 226 
7.46791 -4.72675 19.3557 170 190 227 
6.1547 -4.45329 18.3053 124 140 183 
7.22724 -4.66341 19.1802 74 66 112 
7.34777 -4.68721 19.2695 154 163 204 
8.99948 -4.99317 20.5407 103 88 149 
8.66353 -4.91628 20.3605 183 179 176 
-0.98508 -0.982815 4.08853 106 81 99 
7.66271 -4.69056 19.496 77 59 75 
-0.40244 -1.03633 4.3249 71 47 60 
9.12152 -4.9331 20.6072 129 124 129 
8.8363 -4.89146 20.4628 111 118 139 
8.02509 -4.68977 19.7387 77 61 70 
8.6897 -4.84373 20.3789 162 147 144 
8.67179 -4.76776 20.1241 99 85 83 
6.63228 -4.44958 18.9141 135 131 164 
7.47294 -4.54115 19.3687 151 149 141 
8.50721 -4.69255 20.0356 108 85 91 
8.79032 -4.79043 20.4419 160 160 189 
6.91892 -4.42528 18.9517 105 103 123 
6.91837 -4.35668 18.6733 204 204 191 
7.02996 -4.39471 18.837 86 81 99 
0.440421 -1.19626 5.14975 50 26 40 
5.91417 -4.23274 18.2763 34 30 54 
7.83691 -4.5495 19.624 170 168 156 
-0.985082 -0.949719 4.11922 76 64 84 
6.96811 -4.38001 18.9925 64 53 66 
7.22029 -4.37563 18.9801 108 81 97 
6.10477 -4.23878 18.4538 27 24 64 
7.15013 -4.33077 18.9303 166 155 168 
7.29226 -4.35681 19.0339 161 152 164 
8.52714 -4.63078 20.2981 146 153 148 
6.96216 -4.24801 18.7916 69 52 62 
7.79094 -4.37953 19.3777 167 150 164 
9.06233 -4.63996 20.5993 122 126 169 
10.2049 -4.84556 21.6851 134 120 160 
7.05261 -4.21878 18.9435 64 47 63 
10.7474 -5.00036 22.5354 124 115 162 
12.6481 -5.25033 23.698 146 164 214 
6.86986 -4.13591 18.7248 78 64 78 
7.86493 -4.28594 19.431 172 173 184 
8.20457 -4.38683 19.8716 45 44 50 
9.94221 -4.74395 21.5818 143 157 206 
6.28276 -4.05359 18.7365 63 79 121 
6.13283 -3.96698 18.4883 184 199 240 
7.89448 -4.22196 19.6794 155 153 146 
7.04763 -4.06915 19.0687 170 158 158 
7.41079 -4.11687 19.3433 162 158 163 
7.00046 -4.01249 19.034 97 93 94 
7.12115 -4.03405 19.1276 89 78 99 
7.7999 -4.11671 19.62 109 98 106 
-1.10034 -0.821078 3.94642 125 101 123 
7.19494 -3.99135 19.1864 155 147 139 
9.9541 -4.39745 21.3156 174 196 237 
10.813 -4.59095 22.2525 112 124 179 
7.00253 -3.91662 19.0397 198 195 187 
10.3692 -4.46065 21.7836 138 155 200 
6.93112 -3.86491 18.9851 110 112 139 
9.10324 -4.20413 20.65 115 107 132 
9.36776 -4.23507 20.7823 144 162 176 
8.07493 -4.06283 20.0391 143 153 193 
8.12503 -4.05343 20.0736 164 174 218 
7.97697 -4.01431 19.9748 62 63 109 
7.00513 -3.80657 19.0466 81 80 91 
9.32221 -4.15171 20.7645 70 64 82 
8.93748 -4.09704 20.5685 125 121 134 
9.10744 -4.11765 20.6595 143 139 159 
9.88931 -4.23895 21.3003 136 118 151 
8.49896 -3.95269 19.9316 124 102 105 
10.8702 -4.41803 22.2873 127 133 170 
7.97895 -3.93965 19.9798 179 193 234 
8.8422 -4.03324 20.5196 90 70 66 
8.25379 -3.91163 20.167 164 178 226 
10.2842 -4.19697 21.7702 33 32 73 
10.5232 -4.21764 21.8589 79 55 71 
-0.903558 -0.804226 4.18888 115 99 114 
6.98465 -3.63552 19.0377 112 103 130 
8.25588 -3.83617 20.1722 122 116 166 
10.4805 -4.14051 21.8519 107 120 139 
8.30695 -3.78429 20.2079 66 54 114 
12.5218 -4.42263 23.5809 131 121 157 
8.25978 -3.70986 20.1817 189 208 250 
8.38422 -3.70907 20.2625 63 58 122 
12.6709 -4.33582 23.8212 109 92 127 
8.4102 -3.67818 20.2811 64 61 120 
10.2725 -3.92166 21.7872 166 172 220 
-1.46463 -0.626581 3.49106 112 91 117 
8.5879 -3.54711 20.3992 171 161 197 
0.208898 -0.864818 5.05364 64 32 43 
10.3074 -3.71361 21.8195 113 115 173 
10.4051 -3.70287 21.8593 103 109 160 
9.94282 -3.59845 21.3741 182 191 237 
0.189324 -0.842195 5.01987 115 73 87 
8.47028 -3.35362 20.3376 202 216 253 
10.3392 -3.56006 21.845 125 135 187 
8.4224 -3.2966 20.3106 89 101 153 
8.29869 -3.26518 20.2323 85 82 145 
8.40054 -3.20066 20.3021 74 70 126 
12.4714 -3.6945 23.4464 129 128 175 
10.1767 -3.39988 21.7924 112 124 179 
1.04025 -1.00345 6.55992 141 116 132 
8.42903 -3.09311 20.3266 74 80 140 
-0.379884 -0.673031 4.52078 52 22 32 
8.33519 -2.9039 20.2767 85 96 154 
8.43541 -2.89694 20.342 74 65 123 
-0.125737 -0.628957 4.47429 107 69 84 
6.2696 -2.65164 18.8494 106 115 167 
6.34953 -2.61405 18.734 84 88 132 
8.40401 -2.81045 20.1349 193 216 255 
7.16836 -2.5855 19.0241 188 184 208 
6.349 -2.51368 18.5843 200 206 246 
-1.244 -0.506239 3.76717 119 103 122 
8.13551 -2.35973 17.7996 158 145 168 
-1.21952 -0.497273 3.77552 107 80 92 
7.54409 -2.33981 17.7676 130 146 171 
6.69109 -2.44218 18.6503 117 83 110 
7.31043 -2.42993 18.7288 119 125 149 
6.64513 -2.42949 18.8059 97 67 98 
7.02137 -2.25787 18.0299 157 171 202 
8.23327 -2.25399 18.0135 179 165 192 
7.15742 -2.24462 18.045 205 225 255 
8.85581 -2.23292 18.2249 177 194 227 
7.28486 -2.2091 18.3246 126 143 184 
8.91023 -2.23114 18.474 117 126 171 
8.35633 -2.14697 18.0688 161 183 216 
8.97125 -2.16399 18.4968 159 180 216 
7.67917 -2.09172 17.9713 134 148 173 
9.08703 -2.15294 18.5288 153 170 198 
6.41471 -2.07448 18.2469 151 156 203 
8.34014 -2.05401 18.0691 143 153 182 
1.19427 -0.757878 6.72788 66 54 72 
7.15763 -2.0491 18.1695 116 111 139 
7.40067 -2.05644 18.4072 192 200 246 
8.36104 -2.02436 18.0791 174 191 222 
8.67349 -2.03242 18.1873 161 175 206 
-1.35591 -0.397763 3.62182 116 95 108 
9.01621 -2.02412 18.5207 174 186 221 
-1.46899 -0.377309 3.48691 58 45 57 
7.90505 -1.90227 17.5728 142 114 128 
8.03179 -1.88878 17.7478 177 153 169 
7.43479 -1.77777 17.4362 168 133 146 
-0.491188 -0.422701 4.38737 111 62 65 
8.02921 -1.70477 17.6367 172 141 155 
7.94609 -1.50811 17.7353 70 57 48 
6.89206 -1.52441 18.1606 133 118 100 
6.90078 -1.51587 18.0549 145 127 104 
0.0561303 -0.392712 4.84374 158 146 123 
6.90773 -1.4606 17.9882 83 63 54 
0.310546 -0.412739 5.15125 74 27 43 
7.8117 -1.42213 17.7206 60 56 47 
0.0339854 -0.373918 4.80826 204 194 164 
5.95425 -1.38011 18.048 127 139 187 
6.55382 -1.42117 18.5003 96 106 141 
-0.535403 -0.316061 4.32902 67 30 41 
6.61761 -1.32971 18.4454 82 84 122 
9.74753 -1.40457 19.4118 89 65 113 
-0.412268 -0.314437 4.47569 74 41 48 
6.57095 -1.27999 18.408 112 116 157 
6.1203 -1.23227 18.2032 182 199 242 
0.681215 -0.354426 5.77326 70 33 42 
-1.43736 -0.192702 3.50201 78 65 83 
10.2892 -1.16401 21.4136 113 115 170 
6.62471 -0.981913 18.4652 103 100 140 
10.7774 -1.16467 21.8953 127 129 178 
6.34296 -0.906554 18.2299 106 82 107 
6.25844 -0.82766 18.4163 46 41 63 
1.04442 -0.261266 5.88377 69 30 36 
10.9558 -0.967344 22.2987 133 129 162 
9.91667 -0.850726 19.6079 155 163 204 
-0.487267 -0.181961 4.35214 49 24 32 
9.90881 -0.793766 19.5574 124 122 161 
6.94023 -0.690474 18.7325 60 57 74 
6.84953 -0.662597 18.8549 117 120 156 
6.31615 -0.557253 18.5864 65 67 101 
0.1012 -0.142802 4.91118 111 79 64 
0.119595 -0.141967 4.93759 186 177 146 
-0.519409 -0.112899 4.32629 52 19 28 
6.63645 -0.416485 18.4979 114 115 156 
10.2483 -0.286088 21.3282 68 67 110 
-1.40721 -0.0258445 3.5375 106 89 96 
-1.67061 -0.0172012 3.21564 88 76 98 
7.99623 -0.0144648 18.1392 122 124 157 
0.196457 0.0134359 4.75014 61 44 36 
0.179324 0.0176514 4.75018 155 143 129 
0.0676344 0.0301667 4.72787 166 162 151 
6.0728 0.163269 18.2084 76 78 143 
-0.0133573 0.0509705 4.72256 106 90 103 
0.912736 0.127469 5.88953 123 91 106 
9.95967 0.451342 19.6233 147 148 188 
0.942301 0.147393 5.90856 150 115 135 
6.75921 0.515966 18.5604 118 125 159 
-0.0845729 0.158665 4.65806 74 24 36 
0.944176 0.199812 5.88701 118 78 93 
-0.105161 0.167179 4.64009 138 87 102 
-1.19968 0.142214 3.76749 59 50 71 
-0.0887589 0.191767 4.65748 75 42 51 
0.934067 0.242229 5.89019 94 42 54 
6.63011 0.756742 18.3882 107 103 135 
6.78032 0.759183 18.4359 69 67 97 
9.98062 0.810437 19.6645 166 181 216 
-0.164867 0.191415 4.55562 93 39 53 
0.117749 0.21065 4.86014 56 24 33 
-0.664219 0.180413 3.95748 148 103 121 
0.949481 0.272441 5.85422 132 81 100 
6.32291 0.887379 18.3147 197 201 242 
-1.41342 0.172411 3.49783 133 116 132 
0.873239 0.299354 5.87401 77 29 37 
0.949612 0.297195 5.82265 91 36 41 
-1.51442 0.176116 3.38518 45 51 76 
6.61711 0.984343 18.5373 147 115 124 
0.9647 0.312763 5.81864 162 120 139 
-1.55868 0.182208 3.32333 115 106 155 
-1.5172 0.185348 3.38458 131 150 210 
-0.0131729 0.255658 4.66487 144 95 114 
-1.48304 0.193276 3.41129 33 29 44 
0.944753 0.32694 5.79284 96 42 47 
6.62092 1.04229 18.5016 146 148 183 
6.63562 1.054 18.4036 102 100 137 
0.959767 0.342414 5.78887 157 107 129 
-1.49733 0.213018 3.38798 164 184 250 
-1.50411 0.229555 3.39634 41 64 135 
0.954926 0.392479 5.75965 72 31 38 
-1.3384 0.259635 3.60149 103 88 109 
7.34137 1.31712 18.3425 75 40 63 
7.25327 1.32672 18.2457 149 123 142 
6.52037 1.38376 18.1749 61 34 53 
0.015969 0.362253 4.57443 71 30 34 
7.79275 1.42973 17.4635 76 84 102 
-1.53551 0.275477 3.33168 25 28 62 
-1.5275 0.277428 3.35365 23 41 96 
0.311635 0.428455 4.80859 88 48 65 
-0.736357 0.345846 3.69301 101 66 70 
-0.0124556 0.417507 4.41768 87 44 56 
-1.49102 0.337449 3.37371 142 171 237 
-1.58157 0.335286 3.28992 39 32 60 
-1.49015 0.345632 3.40666 23 30 66 
-1.56528 0.337331 3.29326 150 161 220 
-0.534257 0.399703 3.79501 79 50 52 
-0.642516 0.387495 3.65188 113 80 87 
-0.428133 0.423516 3.91994 71 35 43 
-1.50322 0.368982 3.38056 129 163 223 
-0.494717 0.41776 3.8333 96 61 73 
-1.54699 0.367334 3.31765 138 149 206 
-1.55399 0.369037 3.30711 13 17 29 
-0.504714 0.430894 3.83057 127 88 99 
-1.56403 0.383467 3.30313 21 29 53 
0.128578 0.615948 4.47314 86 60 72 
-1.60667 0.521957 3.25678 67 55 71 
-1.31805 0.587808 3.60827 52 40 54 
-1.35428 0.75283 3.55821 75 56 65 
-1.28883 0.766804 3.62702 60 44 56 
-1.43636 0.759263 3.45456 44 39 52 
-1.491 0.746845 3.36036 83 71 95 
-1.40652 0.870891 3.46547 56 48 62 
0.4901 0.97496 3.55499 63 34 40 
10.2056 -7.20885 21.7443 144 163 216 
10.2661 -7.09751 21.7729 109 119 166 
11.8031 -7.30195 23.0248 106 78 97 
8.27491 -6.34723 20.1384 96 94 153 
8.27828 -6.21668 20.1467 90 96 147 
6.28937 -5.71614 18.6458 90 98 153 
9.99029 -6.53673 21.3351 112 113 171 
-1.13202 -1.19035 3.94276 31 27 39 
-1.49037 -1.03446 3.47477 113 101 131 
6.55245 -5.51749 18.648 107 95 133 
11.9157 -6.82769 23.0982 122 109 128 
7.2978 -5.63987 19.2293 172 182 225 
6.38505 -5.34416 18.2841 128 129 177 
9.86761 -6.16729 21.3194 90 86 142 
7.2149 -5.50453 19.1749 108 88 131 
7.17139 -5.42596 18.8962 161 141 179 
7.17187 -5.38055 18.8975 98 85 127 
7.54256 -5.31645 19.1638 175 192 235 
-1.61571 -0.914031 3.32255 78 66 86 
7.57104 -5.2745 19.1835 144 157 196 
5.89451 -4.87944 17.8767 123 137 187 
7.68562 -5.25901 19.2625 80 60 100 
-1.32569 -1.00811 3.70833 63 47 62 
7.54488 -5.2113 19.1697 56 61 91 
8.51776 -5.44749 20.0434 118 116 152 
6.05969 -4.88589 18.0228 127 134 189 
7.85876 -5.32356 19.6431 162 154 168 
8.16538 -5.30151 19.5628 160 162 160 
8.36066 -5.3063 19.6737 164 152 189 
7.82654 -5.11264 19.0977 114 108 113 
8.63634 -5.38722 20.1173 173 187 225 
7.62857 -5.18889 19.4896 133 136 175 
8.16707 -5.21346 19.567 102 93 84 
8.7491 -5.37545 20.1767 136 117 163 
-1.30678 -0.985097 3.71153 84 72 100 
6.06163 -4.76922 18.0286 132 120 166 
8.25412 -5.16958 19.6228 146 143 138 
10.2163 -5.73557 21.8682 195 216 255 
10.3043 -5.7468 21.9044 80 80 143 
-1.11572 -1.02094 3.93062 110 83 102 
8.58392 -5.22701 20.0967 165 150 150 
8.66982 -5.24111 20.1446 72 66 99 
7.09878 -4.88026 18.8664 138 116 156 
7.21193 -4.90376 18.9491 177 168 167 
-1.0726 -1.02481 3.99111 109 94 113 
7.29809 -4.88308 19.0133 117 123 139 
8.50167 -5.13261 20.0565 111 91 92 
7.34611 -4.8682 19.3016 196 195 236 
10.7438 -5.55276 22.0768 111 99 135 
7.30101 -4.75976 19.0209 69 64 89 
6.14944 -4.51087 18.1147 177 194 241 
-0.0657763 -1.13178 4.55822 64 34 45 
-1.59578 -0.825285 3.34113 116 98 122 
5.98385 -4.44369 17.9708 188 209 250 
7.64274 -4.75777 19.2596 166 153 154 
6.23347 -4.47518 18.1884 139 136 185 
5.90183 -4.3881 17.899 121 131 176 
7.61571 -4.71402 19.2439 139 127 119 
-1.00163 -1.00212 4.10704 64 49 65 
7.3245 -4.67512 19.2448 154 170 206 
8.87962 -4.918 20.2754 89 66 131 
10.0261 -5.21094 21.4613 157 170 223 
0.399999 -1.22834 5.08497 53 31 44 
7.19212 -4.55741 18.9509 143 165 204 
7.53305 -4.62141 19.1925 86 71 81 
7.33524 -4.54626 19.0563 159 161 164 
7.25053 -4.51112 18.9965 109 93 94 
7.64864 -4.55549 19.2745 112 99 107 
7.13797 -4.45148 18.9162 146 135 136 
-0.973147 -0.96441 4.11853 68 59 80 
8.65906 -4.72285 20.1705 161 160 186 
-1.6534 -0.757835 3.25553 89 71 99 
8.02544 -4.59205 19.7922 189 189 175 
-0.840648 -0.983242 4.26073 56 42 60 
6.85638 -4.32107 18.7064 55 46 63 
5.95043 -4.17789 18.1657 165 181 212 
6.29428 -4.19629 18.2506 84 70 91 
6.99888 -4.30211 18.8174 130 122 135 
8.60473 -4.60355 20.1456 107 85 82 
6.9719 -4.24003 18.7996 62 39 49 
10.1314 -4.81186 21.537 148 131 166 
8.0539 -4.32029 19.5494 66 58 66 
8.22548 -4.3063 19.656 89 67 62 
8.89687 -4.38745 20.0179 79 100 141 
8.08454 -4.26566 19.5723 117 122 150 
6.06797 -3.92172 18.2827 184 199 240 
6.20969 -3.93243 18.4097 146 157 200 
6.92 -4.01318 18.7692 188 178 169 
7.11907 -4.03998 18.9204 158 151 161 
7.86109 -4.20777 19.7024 80 67 86 
9.3553 -4.34219 20.5492 114 117 146 
6.15364 -3.86525 18.3614 83 86 137 
6.89306 -3.94302 18.7511 71 63 74 
7.6623 -4.06335 19.3089 111 98 111 
7.09303 -3.93134 18.9055 158 147 140 
9.24743 -4.2472 20.5072 98 74 81 
10.5402 -4.49124 21.7072 115 120 175 
10.2899 -4.4257 21.6255 141 158 202 
6.89577 -3.82131 18.7585 187 186 171 
9.25068 -4.18542 20.5144 149 166 188 
7.86845 -3.96071 19.7209 83 79 123 
8.46262 -3.97186 19.8129 130 130 154 
0.251517 -1.01424 5.08637 69 41 55 
6.89736 -3.74568 18.7629 72 65 91 
8.82729 -4.05322 20.3065 120 117 137 
9.19686 -4.08675 20.4935 58 49 73 
9.8093 -4.18221 21.0952 131 116 143 
10.8048 -4.41125 22.2024 127 130 164 
8.10411 -3.92603 19.8802 138 160 201 
8.19176 -3.93838 19.9364 49 37 89 
8.91529 -4.02274 20.3568 86 77 72 
8.13507 -3.86087 19.9033 169 185 230 
10.1138 -4.21184 21.6995 33 29 63 
10.4447 -4.18804 21.7041 81 58 74 
-0.795824 -0.827664 4.31853 45 35 51 
6.33059 -3.55789 18.5303 192 213 254 
7.78528 -3.77992 19.6725 87 81 124 
10.1343 -4.14953 21.593 116 137 169 
6.87239 -3.58135 18.7502 114 106 135 
10.3343 -4.135 21.6694 33 32 54 
9.20491 -3.89132 20.5115 92 89 105 
7.81634 -3.71572 19.6972 159 171 219 
8.19673 -3.7593 19.9486 64 58 118 
10.3939 -4.09617 21.6958 76 96 117 
8.08184 -3.68346 19.8784 136 143 193 
9.44914 -3.88085 20.9547 148 153 179 
-1.33212 -0.671297 3.6382 126 98 113 
-1.55936 -0.617753 3.38769 87 75 102 
8.37623 -3.66092 20.0683 182 201 237 
8.28934 -3.6297 20.0158 73 65 121 
10.2026 -3.89442 21.6388 166 172 220 
-1.46631 -0.626206 3.49824 117 95 121 
0.149391 -0.870522 4.98498 118 76 87 
9.21805 -3.5617 20.5408 113 106 135 
0.27562 -0.863342 5.12662 69 40 55 
8.41448 -3.38254 20.1078 122 117 161 
7.68506 -3.23963 19.3664 82 85 134 
0.211571 -0.837686 5.05155 65 33 44 
-1.48739 -0.571072 3.4591 90 71 94 
8.1822 -3.29452 19.9658 75 63 123 
8.1841 -3.23399 19.9705 96 86 149 
8.15625 -3.18129 19.9552 201 208 249 
10.373 -3.34929 21.7509 103 101 148 
1.03839 -1.00092 6.54105 146 122 138 
-0.831061 -0.642466 4.25922 120 110 134 
0.251497 -0.735108 5.08653 112 74 89 
7.05271 -2.56156 18.7441 177 176 202 
-1.47785 -0.474591 3.49899 25 24 39 
6.32728 -2.51192 18.5206 185 186 232 
-1.2431 -0.506286 3.76263 118 102 121 
8.06378 -2.52914 19.1215 77 55 90 
6.69663 -2.44862 18.6562 147 121 150 
-1.02889 -0.520646 4.02327 70 60 85 
-0.994445 -0.521914 4.04306 112 80 95 
6.52501 -2.39895 18.5132 107 84 108 
6.55945 -2.36103 18.2741 136 103 125 
8.30003 -2.34132 18.1024 95 75 103 
7.10208 -2.27567 18.045 107 104 132 
8.1946 -2.23822 17.9147 184 178 205 
8.7746 -2.22314 18.1116 176 197 229 
7.25847 -2.18895 18.2915 129 139 179 
8.48018 -2.1357 18.0273 162 181 214 
-0.418126 -0.512435 4.37663 67 27 33 
8.2241 -2.08571 17.9368 114 89 115 
9.27632 -2.11651 18.5264 159 182 214 
8.69224 -2.02671 18.1033 86 87 125 
8.82829 -2.03222 18.1414 103 98 124 
7.18843 -2.00993 18.115 179 201 245 
-1.35586 -0.39727 3.61804 115 93 106 
7.58117 -1.93682 17.7946 164 177 211 
7.58074 -1.86352 17.659 110 87 110 
-1.58175 -0.323415 3.33475 104 90 114 
-0.491544 -0.426319 4.39705 114 65 68 
6.56057 -1.74374 18.3882 118 91 118 
-1.09135 -0.370587 3.96602 61 44 49 
-0.482261 -0.410665 4.4001 51 20 25 
6.82627 -1.63711 17.8853 152 122 130 
-1.27451 -0.334866 3.70007 78 65 82 
8.15131 -1.56128 17.6946 141 116 116 
-0.332999 -0.398275 4.57275 48 21 30 
7.73602 -1.54403 17.7083 137 127 108 
6.5807 -1.57189 18.2782 78 58 77 
6.66476 -1.47379 17.5617 133 118 100 
6.75423 -1.52026 18.3736 113 90 78 
7.77875 -1.45557 17.5454 122 111 92 
8.10773 -1.46919 17.6832 157 150 132 
7.73968 -1.446 17.7166 103 104 93 
-1.11866 -0.315463 3.91131 37 33 49 
6.74023 -1.49426 18.499 34 31 39 
9.99293 -1.55838 19.3311 142 131 122 
-1.22827 -0.295977 3.76711 77 53 63 
9.74722 -1.48986 18.975 58 49 42 
6.15487 -1.37044 18.0159 167 180 222 
9.83394 -1.5001 19.6403 158 159 201 
-1.42362 -0.242921 3.5241 54 41 51 
6.20524 -1.25557 18.2792 104 115 168 
9.7319 -1.30549 19.3113 178 188 234 
8.07025 -1.16937 17.7693 171 142 157 
-1.2619 -0.233165 3.73396 103 89 108 
5.93654 -1.09389 17.8289 117 123 167 
6.07463 -1.1021 17.9519 133 136 182 
6.69288 -1.03516 18.479 120 124 159 
6.4395 -1.00384 18.2707 142 129 150 
6.58612 -0.988521 18.3487 106 105 144 
6.89063 -0.959672 18.9683 130 133 170 
5.95669 -0.817353 18.0657 149 167 205 
6.0412 -0.821178 18.1433 69 56 95 
-0.489052 -0.183741 4.37512 51 21 27 
-0.559086 -0.171147 4.29484 79 40 56 
9.98234 -0.761238 19.8083 182 197 240 
6.78129 -0.686106 18.3394 69 66 85 
6.21543 -0.645728 18.3094 64 63 99 
6.70129 -0.654142 18.5021 125 129 167 
-1.41953 -0.113389 3.52358 57 51 74 
6.15868 -0.588261 18.2588 177 190 224 
-0.518693 -0.111899 4.34603 41 14 20 
6.62158 -0.346826 18.2275 139 146 181 
-1.19099 -0.0598863 3.80468 41 38 49 
-1.17722 -0.0302235 3.81353 122 86 96 
0.0910385 0.0483334 4.74832 132 123 126 
-0.0218602 0.0630011 4.71787 60 25 35 
-0.00144789 0.0633117 4.74288 108 94 111 
0.0242227 0.0633551 4.74474 70 43 34 
0.0445502 0.0731258 4.7226 109 88 71 
0.679283 0.0878968 5.77439 47 19 21 
-0.357625 0.0934184 4.50991 111 61 64 
0.00362889 0.102103 4.67378 116 77 95 
0.941998 0.14757 5.89337 150 116 133 
0.663518 0.176054 5.74581 60 22 33 
6.01875 0.58572 17.9592 76 74 111 
0.784271 0.207853 5.90589 78 34 45 
-0.286685 0.0954038 2.56532 70 26 33 
0.942146 0.230241 5.89426 146 103 122 
6.66405 0.748329 18.1287 69 67 97 
10.2349 0.917634 20.9857 131 100 130 
-1.50647 0.16294 3.39338 36 38 62 
0.936542 0.296471 5.81977 88 33 35 
-1.51084 0.177022 3.37852 45 51 76 
-1.56768 0.180486 3.31323 27 29 57 
-1.55829 0.181125 3.32379 113 101 144 
-1.52016 0.185078 3.39114 102 111 172 
0.0186561 0.253121 4.62983 146 97 116 
0.95472 0.313168 5.77732 157 111 130 
-1.59293 0.182006 3.284 24 33 55 
9.8378 1.07574 19.4803 167 181 219 
-0.166189 0.252701 4.48087 158 109 128 
0.942779 0.325755 5.78077 96 42 47 
-1.58889 0.197505 3.29773 11 19 38 
0.954781 0.344345 5.77768 151 103 124 
-0.0114372 0.286738 4.64535 149 96 113 
-1.58215 0.208403 3.29856 132 124 183 
-1.49941 0.213688 3.38577 169 187 253 
9.87141 1.31306 18.9382 110 89 103 
7.23363 1.27831 18.0813 83 46 66 
-1.21076 0.295564 3.76396 29 26 34 
0.0184845 0.364742 4.58554 76 33 36 
7.53392 1.41421 17.3317 69 77 96 
-1.5259 0.276782 3.35547 23 34 76 
0.311812 0.408189 4.82475 139 152 198 
-1.48313 0.30294 3.39885 51 45 72 
-0.0719883 0.396986 4.35654 86 44 62 
-1.49809 0.31986 3.38283 18 33 73 
-1.57725 0.328785 3.29592 126 126 172 
-0.276643 0.409338 4.10591 82 45 53 
-1.4953 0.34204 3.3848 158 178 245 
-1.56988 0.337605 3.31044 155 172 233 
-0.533158 0.398887 3.78225 79 51 53 
-0.643759 0.387951 3.64389 117 80 88 
-1.56202 0.371829 3.32416 13 17 29 
-1.4631 0.439675 3.42946 81 56 68 
-0.533003 0.516194 3.78156 58 39 44 
-0.590397 0.534138 3.70515 59 26 32 
-1.29226 0.569628 3.6273 40 34 53 
-1.31634 0.589555 3.60735 48 39 54 
-1.45984 0.752461 3.40477 58 46 57 
-1.49327 0.747287 3.36379 94 81 105 
0.48728 0.972838 3.55328 47 27 30 
-1.51175 0.926477 3.35663 56 48 59 
0.755568 1.03286 3.54937 100 56 66 
-0.658171 1.05695 3.5522 71 33 37 
0.776137 1.07325 3.52071 69 33 37 
8.14802 -6.40331 19.882 130 130 190 
5.79532 -5.49936 17.8095 205 221 255 
10.0053 -6.54532 21.1909 180 199 244 
-0.987169 -1.26892 4.12054 94 69 81 
10.155 -6.64281 21.6869 112 113 171 
9.74426 -6.38115 21.1024 139 137 183 
-1.11225 -1.17636 3.93868 118 99 121 
6.4282 -5.43948 18.3622 110 103 136 
7.17129 -5.5592 18.9391 159 166 205 
6.39596 -5.35436 18.3381 127 125 174 
9.9234 -6.19083 21.1923 141 135 189 
9.75512 -6.14159 21.126 157 158 199 
8.2027 -5.78011 19.9523 90 93 142 
8.15806 -5.57223 19.5962 199 205 241 
9.76591 -5.99138 21.149 168 171 206 
7.10866 -5.32838 18.9034 89 71 115 
9.93461 -5.94999 21.2163 164 165 215 
7.22511 -5.21902 18.6966 132 138 182 
7.28151 -5.2416 19.0344 126 104 153 
7.48811 -5.18211 19.1838 79 75 120 
8.03183 -5.2775 19.5367 175 165 150 
7.33109 -5.00392 18.7814 108 106 152 
8.8415 -5.42329 20.349 132 108 153 
9.81479 -5.61524 21.1955 121 112 160 
1.23623 -1.79631 6.82007 99 81 101 
7.59338 -5.07626 19.2612 60 56 74 
8.10293 -5.16097 19.586 70 43 57 
6.94696 -4.92934 18.7981 142 130 161 
8.27363 -5.16726 19.6895 149 146 147 
-1.1599 -1.02065 3.92658 59 41 52 
7.80093 -5.04627 19.4041 181 196 232 
8.40882 -5.13072 19.767 157 151 150 
8.50993 -5.14721 19.8231 104 78 94 
8.94841 -5.30513 20.4121 94 64 117 
10.4129 -5.65503 21.8737 154 174 222 
7.26884 -4.82216 18.7468 199 222 254 
7.8695 -5.00085 19.4491 108 107 142 
8.34466 -5.04865 19.7366 129 109 122 
10.3947 -5.39928 21.4264 116 103 137 
-1.54514 -0.857542 3.42494 106 94 117 
7.32682 -4.78099 19.0881 73 71 103 
6.00986 -4.47038 18.037 194 211 254 
8.52048 -4.87379 19.8476 150 161 187 
8.95988 -4.96207 20.4385 96 77 141 
7.37577 -4.5484 18.8334 132 114 130 
8.65761 -4.7864 19.9261 193 215 250 
7.36677 -4.56991 19.1275 167 166 171 
8.05129 -4.65617 19.5841 112 93 84 
8.76072 -4.75285 19.9841 87 74 113 
7.2654 -4.50461 19.0571 97 86 88 
8.3921 -4.65108 19.7881 122 105 103 
6.81406 -4.30785 18.4385 162 159 147 
6.88047 -4.3206 18.4883 158 146 147 
7.74604 -4.53403 19.393 171 167 166 
8.49482 -4.64245 19.8479 163 162 171 
6.82882 -4.314 18.6753 114 116 131 
8.51884 -4.67495 20.2107 181 198 231 
8.79924 -4.60133 20.0128 131 154 195 
7.18219 -4.27587 18.7114 165 157 169 
8.46355 -4.5304 19.8352 134 113 109 
7.55147 -4.23705 18.9676 102 76 83 
6.83797 -4.1185 18.6342 88 76 84 
8.09794 -4.26137 19.6356 121 127 156 
6.93296 -4.03211 18.8264 166 154 153 
7.15607 -3.98894 18.7066 148 145 157 
9.17848 -4.28353 20.2184 120 110 130 
6.90028 -3.95776 18.804 90 83 98 
7.02359 -3.92134 18.6131 96 80 74 
7.10688 -3.94819 18.9644 157 156 146 
7.8622 -4.02574 19.369 97 70 85 
8.30858 -4.11337 19.7728 120 98 101 
9.04975 -4.19561 20.1656 97 70 75 
7.05984 -3.80424 18.645 155 152 137 
9.08483 -4.11458 20.1855 117 130 142 
8.08053 -4.05652 20.0351 142 151 191 
7.86501 -3.92356 19.376 155 161 204 
8.48288 -4.0052 19.8805 130 132 157 
6.72772 -3.68163 18.3989 103 99 133 
6.96118 -3.72038 18.5756 173 174 193 
9.02201 -4.03423 20.1622 77 64 91 
7.73157 -3.84061 19.42 161 177 221 
7.97225 -3.86456 19.5775 113 135 177 
8.75598 -3.955 20.0328 95 77 71 
9.67946 -4.06354 20.8451 72 51 88 
10.0755 -4.06109 20.9936 96 77 99 
7.83735 -3.81002 19.8149 93 87 127 
10.1251 -4.13087 21.4449 42 24 71 
6.73129 -3.51598 18.4086 118 116 152 
8.04511 -3.75557 19.6312 107 101 151 
8.14864 -3.7346 19.6966 154 180 221 
9.03012 -3.82782 20.1804 106 103 133 
7.911 -3.60783 19.5518 165 172 219 
