ply
format ascii 1.0           { ascii/binary, format version number }
comment made by Greg Turk  { comments keyword specified, like all lines }
comment this file is a cube
element vertex 1292
property float x
property float y
property float z
property uchar red
property uchar green
property uchar blue
end_header
-0.497167 -0.0833761 5.24305 213 207 191 
-0.380526 -0.0760971 5.25903 192 178 149 
-0.08395 -0.0456527 5.07292 66 25 33 
-0.364043 -0.0395953 5.21399 151 128 110 
-0.484114 -0.0378578 5.22512 161 140 118 
-0.360904 -0.0360084 5.22319 184 168 145 
-0.4458 -0.0303351 5.2199 123 110 104 
-0.372035 -0.0282943 5.22008 171 160 140 
-0.462466 -0.0243692 5.21593 185 171 145 
-0.459148 -0.00216647 5.22105 143 124 92 
-0.763718 0.00567799 5.47859 59 21 32 
-0.798957 0.00744165 5.50246 66 23 30 
-0.167856 0.0435249 5.10793 81 31 40 
-0.422276 0.0627984 5.28043 127 103 79 
-0.404606 0.0777688 5.29947 168 153 120 
-0.213507 0.116937 5.13768 74 22 34 
-0.661867 0.150351 5.40871 69 25 35 
-0.48431 0.142474 5.12677 178 168 159 
-0.554938 0.16388 5.19671 153 138 125 
-0.498457 0.164387 5.11939 175 178 168 
-0.430506 0.176124 5.12768 147 132 132 
-0.50617 0.186014 5.08513 222 215 204 
-0.455256 0.189872 5.09276 199 191 180 
-0.49514 0.191961 5.10435 132 123 128 
-0.461425 0.19661 5.09961 125 114 111 
-0.464997 0.199332 5.09838 115 106 107 
-0.523979 0.202189 5.09691 72 58 45 
-3.00079 0.285558 6.98971 69 81 102 
-0.513536 0.221381 5.08509 82 80 93 
-0.507156 0.224431 5.09492 90 88 95 
-0.368443 0.227725 5.14335 169 161 143 
-0.490713 0.228738 5.09679 97 92 98 
-2.93816 0.317955 7.03991 41 50 92 
-2.95126 0.321615 7.05904 33 52 94 
-2.93446 0.32172 7.03104 33 44 83 
-0.350411 0.235717 5.12489 173 163 154 
-0.308198 0.233023 5.1021 180 171 162 
-1.29023 0.303623 5.90749 77 29 31 
-0.292037 0.262435 5.07851 204 202 189 
-0.200007 0.268464 5.1254 66 21 28 
-0.299705 0.276439 5.08386 49 28 34 
0.633404 0.264706 4.63224 67 42 55 
0.57937 0.268732 4.67027 92 50 69 
-0.111325 0.3437 5.0622 80 29 38 
-0.157966 0.348886 5.08722 74 23 32 
-0.7486 0.395291 5.44063 83 30 40 
-0.702537 0.392718 5.41988 79 31 44 
-1.43056 0.447266 5.84232 77 39 50 
1.62911 0.369018 4.35462 131 120 132 
-2.06273 0.569619 6.52979 44 45 74 
1.11296 0.408125 4.66514 135 126 143 
-2.1208 0.583206 6.5778 134 135 196 
-2.0647 0.578189 6.52857 122 146 208 
-2.14883 0.597816 6.58332 46 47 101 
-2.03132 0.594933 6.51263 29 35 84 
-2.96489 0.646913 7.01853 86 94 122 
-2.9437 0.644846 6.99841 102 115 149 
-2.04359 0.605191 6.51407 144 169 229 
-2.93186 0.65528 7.01244 68 64 109 
-2.92473 0.667568 6.98936 40 42 80 
-2.05257 0.623989 6.52752 35 48 112 
-2.13794 0.629103 6.57192 71 73 126 
-2.13479 0.633853 6.56951 52 53 110 
1.28358 0.438522 4.5217 79 120 213 
-2.03107 0.656589 6.49673 45 48 88 
-2.11761 0.675439 6.62753 29 53 110 
-2.10003 0.67473 6.55019 151 172 231 
-2.02821 0.685394 6.48745 46 44 85 
-2.0506 0.703696 6.50629 28 44 111 
-2.13986 0.712641 6.56305 55 59 118 
1.29071 0.49027 4.52379 62 100 200 
-2.13646 0.725042 6.54533 132 130 186 
-2.04659 0.719157 6.50107 141 170 230 
-2.15275 0.728666 6.56619 42 35 74 
1.28579 0.513942 4.51224 81 115 207 
-2.12085 0.753848 6.54838 113 103 153 
-2.11292 0.753472 6.54587 145 145 199 
0.63472 0.50546 4.3972 70 31 45 
-2.95151 0.808526 6.98678 38 55 80 
-2.9268 0.809307 6.99431 48 42 84 
-2.1332 0.769509 6.56452 43 41 68 
-1.60987 0.675121 5.7269 66 35 44 
-1.27499 0.688008 5.54313 58 36 49 
-1.64101 0.71881 5.74137 99 88 99 
1.32688 0.571507 4.52969 82 67 93 
-2.93512 0.918059 6.98985 37 48 88 
-1.39692 0.768154 5.58892 86 46 59 
0.0452733 0.658849 4.74842 73 35 49 
1.07428 0.72296 4.65865 68 53 78 
1.08653 0.865958 4.63887 127 128 146 
1.15049 0.861505 4.59887 119 122 143 
-2.9173 1.36407 6.9474 30 28 57 
2.29453 0.901859 4.41114 32 52 88 
-2.47528 1.44374 6.67182 99 83 106 
-2.48479 1.47038 6.63289 86 78 102 
-2.95492 1.54152 6.7014 89 93 104 
-2.66199 1.54311 6.59548 163 188 226 
-2.77924 1.53351 6.53394 122 123 131 
-2.47585 1.49924 6.02606 98 111 109 
1.732 1.15603 4.10485 36 38 62 
1.8615 1.14043 4.03413 39 31 63 
1.73858 1.16413 4.1063 131 167 230 
1.86111 1.14621 4.03325 107 119 180 
1.73086 1.18609 4.12699 41 69 129 
1.86552 1.16566 4.02076 101 105 188 
1.86949 1.17009 4.01681 147 167 227 
1.80047 1.20998 4.06131 54 79 158 
1.72386 1.24693 4.1175 37 22 40 
1.70749 1.26096 4.121 53 36 52 
1.7658 1.27459 4.0798 58 47 130 
1.75062 1.28308 4.0927 51 79 121 
1.85272 1.26372 4.03086 44 75 148 
-1.31163 1.32477 4.21956 128 132 147 
-0.973262 1.28949 3.92212 41 42 97 
-1.16131 1.29851 3.93332 182 178 236 
0.695576 -1.76488 5.0812 75 61 83 
0.860504 -1.71651 4.987 150 129 149 
0.312987 -1.81428 5.33822 99 76 107 
0.766671 -1.70372 5.02576 137 117 136 
1.09932 -1.60174 4.8357 69 54 76 
-0.223619 -1.67274 5.18712 85 44 60 
-0.984624 -1.87505 6.10125 89 72 95 
-0.975537 -1.87041 6.09402 119 106 126 
1.15583 -1.43556 4.7738 89 62 84 
0.389352 -1.57445 5.24155 103 78 103 
1.38971 -1.38382 4.63989 45 21 45 
-1.62253 -1.93469 6.50948 122 103 125 
1.38417 -1.36213 4.63484 90 71 99 
-0.796072 -1.61729 5.52882 74 35 53 
-0.267668 -1.53749 5.25334 85 39 52 
0.518781 -1.50307 5.16863 81 67 93 
-0.177451 -1.50974 5.21906 84 39 54 
0.973919 -1.41362 4.90305 80 55 80 
-1.62306 -1.86538 6.47822 86 65 84 
0.300848 -1.48718 5.28812 87 57 83 
0.512988 -1.43754 5.15597 100 73 95 
-1.16269 -1.68446 6.18715 60 46 72 
0.746933 -1.34427 5.01069 86 64 87 
-1.64227 -1.64496 6.48758 123 106 125 
0.464608 -1.31614 5.19132 106 92 110 
1.18529 -1.18093 4.75871 48 33 52 
1.28734 -1.15598 4.67844 61 47 66 
-1.36006 -1.5524 6.30359 102 85 97 
1.18641 -1.1269 4.74665 71 49 66 
-2.61564 -1.63862 7.05022 76 81 117 
-2.40915 -1.61073 6.93267 63 52 75 
0.631702 -1.13909 5.06511 93 69 91 
-2.04625 -1.49841 6.71115 86 72 90 
0.623617 -1.10465 5.07086 64 46 68 
1.3092 -0.989263 4.66204 74 56 76 
1.07307 -0.99474 4.79354 61 38 55 
-2.61694 -1.4525 7.0205 74 90 135 
-1.70615 -1.30317 6.46158 86 68 85 
-1.27175 -1.19171 6.21999 73 49 58 
-1.26131 -1.16832 6.20833 85 62 85 
-1.39582 -1.1709 6.27896 77 57 69 
-0.201314 -0.93535 5.07555 78 35 50 
-2.62028 -1.28758 7.00512 106 123 168 
-0.30713 -0.934437 5.11113 63 29 40 
-3.06182 -1.28981 7.16876 98 131 172 
-3.06786 -1.28401 7.19032 43 76 121 
-3.00168 -1.27791 7.20377 34 36 66 
0.623979 -0.880149 5.05608 107 80 99 
-0.740537 -0.910468 5.38566 78 45 58 
0.555165 -0.860134 5.09053 114 78 92 
1.20076 -0.785086 4.69778 76 59 85 
-0.905151 -0.894441 5.48927 88 39 51 
1.03399 -0.764826 4.81536 72 54 76 
-2.19168 -1.06126 6.7453 132 112 123 
1.0218 -0.748816 4.81717 85 74 96 
-2.29126 -1.04826 6.81471 72 54 70 
0.740555 -0.723234 4.9681 81 66 89 
-2.55534 -1.00621 6.96894 87 69 93 
1.61292 -0.636689 4.4273 60 43 60 
-0.55701 -0.742029 5.39974 69 37 45 
1.03421 -0.624189 4.80671 60 51 68 
-0.424787 -0.673984 5.33225 82 37 44 
-2.21453 -0.836558 6.75228 56 47 64 
-2.18549 -0.736232 6.71707 137 124 138 
-0.419422 -0.577883 5.32303 107 67 75 
-0.625838 -0.56119 5.42675 71 32 43 
-1.46925 -0.596804 6.2892 111 100 121 
1.30643 -0.429249 4.6164 127 121 134 
1.30316 -0.418018 4.60482 78 61 82 
-0.258315 -0.422249 5.20164 57 19 27 
-1.69239 -0.409383 6.38811 129 101 113 
-2.95508 -0.405463 7.11417 29 50 93 
-2.95488 -0.393533 7.09861 103 122 159 
-2.33398 -0.340007 6.77483 76 63 84 
-0.131008 -0.227756 5.0879 73 32 38 
-0.521511 -0.22937 5.39715 140 126 109 
-0.524591 -0.224516 5.35612 140 119 104 
1.6236 -0.154554 4.39359 118 108 129 
-0.482757 -0.176163 5.28041 192 184 165 
-0.496253 -0.173474 5.27752 202 192 172 
1.13062 -0.153436 4.7119 110 90 114 
1.13359 -0.151745 4.69037 70 48 68 
-0.57474 -0.159625 5.36768 144 113 106 
-0.667959 -0.148835 5.4235 73 34 42 
1.13256 -0.118749 4.6945 70 47 67 
-0.576385 -0.125005 5.3611 153 134 122 
-0.504165 -0.122299 5.26442 162 146 130 
-0.344384 -0.103824 5.27173 183 173 148 
0.160304 -0.0951726 5.06512 84 41 51 
-0.499956 -0.0827693 5.24436 218 209 193 
1.19175 -0.0731983 4.65459 88 68 83 
-0.380274 -0.0757613 5.26096 192 178 149 
-2.36012 -0.0536103 6.76531 77 55 74 
-2.30975 -0.0481523 6.72994 67 59 83 
-0.45876 -0.0343014 5.21687 221 216 187 
-0.485398 -0.0304516 5.23486 173 154 124 
-0.436093 -0.0203403 5.21719 101 81 70 
-0.449477 -0.0166716 5.21429 166 148 124 
-0.711509 0.000779369 5.44964 63 24 35 
-2.60883 0.00801812 6.90972 69 88 124 
-0.763894 0.00565006 5.48547 59 21 32 
-0.122113 0.0408714 5.08436 84 39 44 
-0.167339 0.0454081 5.11497 81 31 40 
0.200899 0.0720232 4.92657 110 55 73 
-0.712478 0.0856924 5.4389 77 33 42 
-0.215237 0.117512 5.14347 79 28 39 
1.18409 0.106035 4.64045 114 105 122 
1.41542 0.109188 4.51575 88 69 88 
1.51556 0.110758 4.4353 96 71 96 
1.39529 0.117931 4.52683 79 61 80 
0.0857054 0.133 5.08428 69 23 33 
1.18842 0.126185 4.6337 130 125 139 
-0.661443 0.150694 5.40834 69 25 35 
-0.549185 0.154961 5.19217 153 135 131 
-0.43213 0.175561 5.11627 126 109 110 
-0.506345 0.186538 5.07944 217 210 197 
-0.462442 0.197637 5.1067 125 115 114 
-0.516839 0.20472 5.09576 95 83 68 
-0.497112 0.209876 5.09806 52 42 36 
-0.510971 0.221489 5.05965 82 80 93 
-0.522056 0.23117 5.25986 90 88 95 
-0.378671 0.229479 5.14547 109 91 85 
-0.454957 0.242826 5.09763 131 125 109 
-1.28962 0.303656 5.90469 77 29 31 
-0.319191 0.261812 5.08891 103 77 78 
-0.303801 0.261638 5.09054 198 188 179 
0.206227 0.257141 5.00433 73 32 40 
-0.201079 0.268021 5.1243 77 30 38 
1.1534 0.244929 4.64691 99 81 109 
-0.322414 0.271805 5.10494 150 142 140 
-0.666485 0.305887 5.39208 83 35 43 
-0.791472 0.31775 5.47813 72 25 37 
-0.157778 0.347834 5.09306 84 31 41 
-0.701981 0.393055 5.41258 86 38 54 
-2.04629 0.556883 6.5062 49 41 60 
-2.13513 0.570924 6.57064 54 41 66 
1.11793 0.405362 4.65059 88 67 88 
1.10876 0.407889 4.6545 136 127 146 
-2.12154 0.583709 6.58164 134 135 196 
-2.15588 0.598555 6.60788 34 38 86 
-2.96287 0.646535 7.01499 86 94 122 
-2.9566 0.646411 7.01461 99 111 140 
-2.14434 0.611134 6.58121 134 131 186 
-2.91903 0.653997 6.97569 53 50 92 
-2.93154 0.66752 7.00568 37 35 72 
-2.96258 0.677916 7.02881 87 96 127 
-2.13599 0.634183 6.57325 52 53 110 
-2.09484 0.656902 6.53398 169 182 235 
-2.08875 0.663246 6.54162 48 70 122 
-2.13563 0.705688 6.55465 47 56 109 
-2.05259 0.701366 6.50819 23 48 120 
-2.15613 0.729008 6.57359 57 49 81 
1.2804 0.512783 4.51745 58 102 198 
-2.93731 0.795797 6.99046 41 45 83 
1.28536 0.51434 4.51418 84 121 210 
-0.543338 0.582964 5.09463 116 123 164 
-2.05503 0.744815 6.49807 108 133 187 
-2.11187 0.752513 6.53398 129 123 174 
-2.06105 0.747995 6.49922 140 153 206 
-2.93268 0.810435 7.00839 48 42 84 
-2.12745 0.76115 6.55567 37 30 57 
-2.06031 0.758694 6.5147 32 36 60 
-2.13319 0.76723 6.55573 33 39 65 
-2.93989 0.821463 6.97492 92 113 143 
-1.66229 0.678002 5.75466 70 46 57 
0.176402 0.559079 4.67546 98 51 65 
-0.146929 0.585229 4.87959 70 34 51 
-1.46684 0.680721 5.62877 84 52 65 
-1.20078 0.662017 5.47595 71 33 41 
-0.875149 0.639331 5.29253 77 36 55 
-2.9453 0.859632 6.99503 43 71 104 
-2.93725 0.865898 7.03387 70 68 103 
0.246535 0.569324 4.61793 88 51 67 
-2.91957 0.859503 6.96993 24 27 60 
-1.27289 0.685667 5.53055 74 42 55 
-1.63969 0.717719 5.7369 99 88 99 
1.07809 0.586288 4.66197 64 48 66 
1.31415 0.572173 4.53905 78 58 80 
1.32328 0.571002 4.52292 86 67 89 
-2.93575 0.885376 6.98686 33 53 95 
-2.93122 0.915623 6.9759 37 53 92 
0.386473 0.619195 4.53984 81 37 51 
-1.60422 0.782874 5.71712 83 44 55 
-1.39625 0.768002 5.59119 86 46 59 
-0.279473 0.682005 4.93428 97 54 71 
0.593198 0.998631 7.1886 98 47 61 
0.58244 0.617752 4.4237 92 48 59 
1.07443 0.722538 4.65494 68 53 78 
-2.5039 1.13964 6.75586 45 40 63 
-2.60827 1.1661 6.79044 116 135 175 
1.15101 0.861644 4.5969 119 122 143 
1.06174 0.906301 4.65251 84 71 101 
-2.90952 1.35952 6.93172 30 28 57 
-2.94342 1.40534 6.94011 30 28 49 
-3.03791 1.40651 6.92185 58 82 116 
2.28942 0.901367 4.39532 56 94 142 
-2.47232 1.44171 6.66282 100 86 107 
-2.95819 1.54274 6.71339 84 84 99 
-2.64137 1.54426 6.68773 43 45 67 
-2.66541 1.54408 6.60256 159 186 225 
-2.69577 1.54572 6.59305 169 169 199 
-1.23779 1.01419 4.27872 74 43 62 
-1.45404 1.1058 4.39805 75 43 63 
1.71673 1.15001 4.11741 56 38 50 
1.7301 1.15597 4.10254 28 29 52 
1.85617 1.14659 4.03513 126 154 216 
1.71034 1.17597 4.12797 50 37 52 
1.75193 1.16561 4.09091 60 53 137 
1.84138 1.15588 4.04888 50 56 131 
1.72278 1.18331 4.11475 34 50 97 
1.8895 1.16128 4.01665 37 44 62 
1.87248 1.17157 4.0213 147 167 227 
1.79626 1.21362 4.06248 155 174 240 
1.80262 1.2209 4.06075 68 49 130 
1.72437 1.24791 4.11871 37 22 40 
1.71175 1.26328 4.12708 40 24 42 
1.74538 1.27672 4.08805 15 29 72 
-1.30588 1.3229 4.22237 120 133 149 
1.85238 1.26369 4.03082 35 67 138 
1.73858 1.28173 4.08036 14 23 44 
1.75432 1.28498 4.09235 93 117 159 
1.75356 1.28183 4.0823 130 144 194 
-1.1662 1.29174 3.93666 55 41 81 
-1.01661 1.28675 3.8433 64 50 113 
0.548049 -1.78764 5.17339 101 77 106 
1.38167 -1.58859 4.67006 68 49 74 
0.846573 -1.69598 4.99179 77 51 76 
0.669 -1.70767 5.08739 72 57 74 
2.234 -1.55696 4.66898 93 83 139 
-0.0548608 -1.83444 5.5423 88 61 83 
1.09721 -1.59931 4.83378 67 51 74 
0.542235 -1.70111 5.16983 99 65 87 
1.11411 -1.56768 4.81965 82 62 87 
-0.224063 -1.66991 5.17571 93 52 68 
1.09138 -1.56189 4.84154 96 78 97 
-0.813545 -1.92558 5.99784 67 56 82 
-0.231919 -1.64653 5.17051 96 42 57 
0.0114184 -1.746 5.47826 110 82 106 
0.455731 -1.62587 5.1982 118 85 106 
-1.18918 -1.93449 6.22781 85 71 96 
1.21907 -1.47271 4.74848 82 67 96 
1.54223 -1.41215 4.55411 37 30 45 
0.0313986 -1.69442 5.46936 89 57 78 
-0.97498 -1.86933 6.08676 111 97 116 
-0.963579 -1.87166 6.0952 75 62 83 
0.417464 -1.58772 5.22925 77 55 78 
0.388325 -1.5752 5.23964 105 83 106 
1.15314 -1.43521 4.773 89 62 84 
-2.10652 -2.03364 6.77448 95 84 102 
1.08625 -1.44395 4.81876 101 80 105 
1.38367 -1.39142 4.65216 96 67 91 
1.38826 -1.38433 4.63506 45 23 44 
-0.335712 -1.5748 5.31835 92 45 55 
0.518378 -1.50394 5.17336 81 67 93 
-0.159377 -1.49301 5.17961 85 44 57 
0.971511 -1.41274 4.89952 97 72 95 
-1.62146 -1.86284 6.47467 86 65 84 
1.36824 -1.33679 4.64919 85 69 82 
-1.95979 -1.90219 6.68368 70 63 89 
0.647591 -1.42413 5.08617 96 68 89 
-1.95363 -1.83481 6.67372 80 61 80 
1.37095 -1.27243 4.63374 107 98 121 
0.582922 -1.40198 5.12401 105 77 92 
0.741278 -1.35772 5.01956 75 54 77 
-0.240343 -1.34437 5.00843 69 32 49 
-2.40685 -1.82239 6.93689 125 112 130 
-2.21351 -1.77856 6.8202 58 41 60 
0.493491 -1.32447 5.1672 72 59 77 
-1.81592 -1.67092 6.57887 74 55 69 
-1.64128 -1.63987 6.47266 137 121 139 
1.6057 -1.12064 4.47275 98 69 91 
-1.30997 -1.5573 6.26094 50 34 45 
1.18374 -1.18272 4.75583 45 28 46 
1.17255 -1.18089 4.76077 107 87 99 
1.28774 -1.15744 4.68285 67 54 73 
1.06239 -1.1848 4.81318 106 98 115 
1.16723 -1.1627 4.7593 101 80 99 
1.18544 -1.12702 4.74277 77 56 74 
-2.40771 -1.61166 6.92847 61 52 74 
0.632311 -1.14194 5.06999 96 72 91 
0.631812 -1.1225 5.06597 97 87 112 
-2.62193 -1.46589 7.03711 122 132 172 
1.00702 -1.00322 4.83669 87 63 76 
1.06759 -0.973876 4.79138 122 102 122 
-1.70646 -1.29784 6.46328 73 56 76 
0.0580413 -0.976269 5.05648 89 41 54 
0.197616 -0.937093 4.85508 106 48 62 
-1.92139 -1.26934 6.6108 63 47 66 
-1.25122 -1.17948 6.1805 120 92 104 
-1.25863 -1.16777 6.20081 85 62 83 
0.577137 -0.953778 5.09664 97 65 80 
-1.39745 -1.17398 6.28682 82 64 77 
-2.62098 -1.28878 7.01516 99 110 154 
-0.307075 -0.936605 5.11812 78 39 52 
-0.283037 -0.928391 5.11836 74 31 47 
-3.06554 -1.28052 7.18244 54 90 135 
-3.05674 -1.28223 7.17857 34 60 98 
-2.99152 -1.2583 7.19296 47 53 82 
-1.92389 -1.14779 6.60765 85 67 83 
1.11149 -0.824574 4.7652 136 118 132 
1.29442 -0.805565 4.65407 118 101 119 
-1.80936 -1.12804 6.53007 78 59 77 
1.15049 -0.800801 4.74146 93 64 78 
1.20163 -0.786003 4.69955 84 70 94 
-0.720855 -0.90216 5.39564 104 62 72 
-0.129638 -0.841742 5.06874 67 31 41 
1.1118 -0.781652 4.75592 81 63 91 
1.02984 -0.764379 4.80195 87 71 91 
-2.61006 -1.10849 7.02482 94 78 110 
-2.28676 -1.04646 6.79424 77 62 77 
-1.46488 -0.971625 6.30838 80 69 84 
-2.96352 -1.09734 7.17064 31 45 102 
-1.50167 -0.964267 6.35299 79 59 75 
0.781449 -0.744364 4.94231 101 88 111 
-1.19015 -0.849055 5.70164 95 44 59 
-1.74036 -0.956704 6.47613 122 109 127 
0.738265 -0.722615 4.96423 84 69 91 
1.61789 -0.639099 4.44201 80 62 75 
-0.557667 -0.740636 5.3977 65 35 43 
1.03391 -0.6249 4.80918 68 60 75 
-0.424411 -0.672276 5.31527 82 37 44 
-0.480638 -0.671275 5.35485 74 35 47 
1.60505 -0.495446 4.43213 84 58 69 
-2.18333 -0.7361 6.70504 134 118 134 
-0.647186 -0.57346 5.43979 86 43 56 
-0.625862 -0.561641 5.42674 71 32 43 
-0.303824 -0.540667 5.24423 49 22 30 
1.30586 -0.431541 4.61721 131 124 139 
-1.54645 -0.581426 6.31872 63 53 73 
0.122893 -0.444695 5.12136 62 27 33 
-1.72075 -0.553896 6.41527 67 50 60 
-2.22373 -0.52964 6.71094 120 102 129 
-0.537024 -0.318015 5.38802 46 20 23 
-2.9502 -0.405396 7.10241 29 50 93 
1.07791 -0.267654 4.73783 72 50 58 
1.1333 -0.218826 4.70093 85 66 85 
-0.192745 -0.225949 5.12899 73 36 44 
-0.43832 -0.224765 5.28218 182 165 147 
-0.539029 -0.214121 5.35145 135 104 95 
-0.552094 -0.200022 5.3427 121 85 82 
-0.476973 -0.192098 5.28273 198 186 169 
-0.71904 -0.183251 5.44596 79 43 55 
-0.563743 -0.180483 5.34748 115 78 78 
-0.427284 -0.170413 5.31646 104 80 56 
-0.669426 -0.149173 5.43528 73 34 42 
-0.365229 -0.140403 5.30123 207 193 167 
-0.577537 -0.126114 5.37169 148 128 121 
-0.343665 -0.106239 5.26765 173 163 136 
0.160968 -0.0941639 5.05868 84 41 51 
1.43237 -0.0567416 4.50723 58 42 59 
-0.0848754 -0.0463186 5.08 80 37 46 
-0.173571 -0.0390407 5.1155 79 37 49 
-0.360696 -0.0366651 5.23578 171 153 133 
-0.208954 -0.0370196 5.13186 83 36 44 
-0.454544 -0.0328919 5.27813 138 129 114 
-2.31708 -0.0337429 6.74789 112 109 138 
-0.473823 -0.0272512 5.21741 140 122 100 
-0.220648 -0.0252441 5.15551 93 46 56 
-0.449413 -0.01715 5.21907 178 162 137 
-0.421371 -0.0150644 5.20888 168 151 131 
-0.931497 -0.00810527 5.70256 62 30 38 
-1.01861 -0.00167569 5.77475 73 32 38 
-0.711018 -0.00116022 5.44977 75 32 45 
-1.08155 0.00407999 5.82149 60 24 34 
-2.60466 0.0123644 6.90347 65 74 110 
-0.361223 0.0430406 5.28341 106 88 71 
-0.122174 0.0402414 5.0867 84 39 44 
-0.421269 0.0618462 5.27565 122 101 74 
-0.37675 0.0735486 5.30787 152 140 114 
-0.758577 0.0865541 5.46444 92 42 50 
0.308064 0.089399 4.96163 95 43 47 
-0.214445 0.116109 5.13525 90 39 48 
1.18464 0.105069 4.64259 112 102 121 
1.41376 0.108969 4.50796 85 65 83 
1.18795 0.124455 4.63655 128 125 140 
-0.662064 0.149997 5.39819 85 38 52 
-0.454609 0.156561 5.12388 202 194 179 
-0.521612 0.159212 5.12541 162 153 154 
1.43703 0.141231 4.48512 126 101 116 
-0.500485 0.164148 5.1281 185 187 179 
-0.433263 0.169306 5.12429 122 105 98 
-0.433167 0.174519 5.12313 126 109 110 
0.543928 0.163833 4.82622 71 28 30 
-0.471194 0.188845 5.10052 204 202 186 
-0.45541 0.189923 5.10277 190 183 175 
-0.463127 0.197791 5.09977 125 115 114 
-0.49693 0.208518 5.09168 65 51 44 
-0.370886 0.216512 5.14937 120 106 105 
1.1894 0.195345 4.63291 61 45 62 
-0.510986 0.219844 5.0468 83 79 93 
-0.36806 0.226946 5.14738 151 142 128 
-0.482059 0.229624 5.10292 104 102 107 
-0.300671 0.241871 5.0975 118 104 101 
-0.304933 0.259364 5.07983 187 172 167 
-0.294359 0.260509 5.08055 211 209 196 
-1.29063 0.304026 5.90223 68 26 28 
-0.111189 0.262584 5.06991 63 17 28 
1.17867 0.239393 4.62869 77 63 89 
-0.164713 0.2658 5.0886 74 28 38 
1.15568 0.243611 4.65276 99 82 106 
-0.300204 0.276779 5.08971 56 35 40 
-0.279733 0.282468 5.10381 57 30 34 
-0.211493 0.282967 5.12802 80 37 46 
-0.702231 0.3088 5.42547 75 29 39 
0.898879 0.274605 4.81176 113 104 121 
-0.790704 0.317244 5.46952 77 30 42 
0.46196 0.301181 4.86497 83 34 42 
0.630655 0.292996 4.63075 63 31 39 
-0.111284 0.343359 5.07342 93 39 47 
-2.9643 0.479848 7.03873 46 45 69 
-0.159268 0.347449 5.08411 86 33 43 
-1.42914 0.417661 5.83892 112 64 82 
-0.13775 0.363104 5.07346 129 78 87 
-0.702779 0.392255 5.40785 91 42 56 
1.62794 0.367748 4.35105 120 111 128 
-2.05133 0.558952 6.52938 54 43 59 
-2.13884 0.573201 6.57846 36 31 54 
-2.06213 0.568129 6.5313 44 45 74 
1.10729 0.406582 4.65338 139 131 154 
1.12095 0.405757 4.65989 77 56 78 
-2.1534 0.580858 6.58097 75 73 96 
-2.11863 0.582952 6.56902 127 122 182 
-2.06872 0.578939 6.53052 139 159 220 
-2.15291 0.595092 6.6006 28 38 75 
-2.03305 0.591398 6.51448 18 25 79 
-2.96967 0.645787 7.03396 84 92 122 
-2.05118 0.604668 6.5397 142 173 236 
-2.96988 0.679846 7.05192 70 83 113 
-2.1332 0.632732 6.56113 65 71 122 
-2.09637 0.655657 6.5423 170 181 240 
-2.03118 0.654019 6.49762 49 46 87 
-2.10718 0.664854 6.54416 42 37 81 
-2.09849 0.674951 6.53832 155 171 228 
-2.02853 0.683389 6.48914 55 50 90 
1.13058 0.48941 4.64949 79 62 82 
-2.04837 0.719599 6.50911 125 153 215 
-2.15536 0.728742 6.56607 61 57 84 
-2.03131 0.722346 6.47641 38 59 122 
-2.16626 0.742194 6.58872 42 43 69 
-2.02322 0.729471 6.48301 25 20 39 
1.14829 0.524112 4.63282 112 110 134 
-2.06502 0.746417 6.50807 157 176 232 
0.632892 0.504857 4.3946 82 40 50 
-2.93316 0.80858 7.00797 68 60 97 
-2.12539 0.758758 6.54749 27 24 53 
-2.05637 0.756383 6.50216 34 36 69 
-0.479624 0.587752 5.04893 127 140 189 
-0.545116 0.595153 5.09469 130 114 146 
-1.27378 0.648166 5.52194 94 47 60 
-1.60879 0.672064 5.70873 55 29 37 
0.649464 0.518651 4.38272 91 45 53 
0.444347 0.535525 4.50604 94 46 54 
0.506756 0.532129 4.4757 102 51 63 
-0.149897 0.58147 4.86568 110 63 80 
0.112958 0.562204 4.70907 85 40 50 
0.175385 0.558013 4.66996 98 51 65 
-1.46435 0.678886 5.62315 72 42 54 
0.168453 0.565464 4.6807 133 88 100 
-0.162875 0.597687 4.8741 113 64 81 
0.163529 0.573835 4.67937 106 53 69 
0.496171 0.549832 4.48557 92 44 56 
-2.91904 0.856509 6.96571 27 28 62 
-0.283627 0.608294 4.93935 88 54 68 
0.246135 0.56871 4.62572 84 50 65 
0.37289 0.560606 4.55223 84 47 55 
0.580595 0.545892 4.4331 86 52 67 
-0.407168 0.618437 5.00038 101 61 76 
1.76977 0.525231 4.24998 125 96 105 
-1.60314 0.707991 5.7098 69 48 59 
-1.40047 0.69288 5.59066 76 46 59 
1.07861 0.586601 4.66602 64 48 66 
1.31043 0.569617 4.533 92 73 92 
1.32241 0.570922 4.52544 72 56 84 
-2.93524 0.883834 6.98706 33 53 96 
0.385961 0.617814 4.53837 89 41 55 
-1.60333 0.780353 5.71033 98 54 64 
-1.36906 0.765688 5.58138 96 56 66 
-0.737042 0.717171 5.21099 108 60 78 
0.379743 0.625282 4.54913 133 87 97 
-0.280881 0.681483 4.93647 106 61 80 
0.371757 0.629759 4.53843 123 66 83 
1.0516 0.705626 4.66497 104 99 121 
1.0729 0.721027 4.65174 75 58 83 
-2.49678 1.13543 6.73811 59 52 75 
-2.59052 1.14498 6.78122 147 167 203 
-2.5996 1.15645 6.80493 141 158 193 
-2.61333 1.16746 6.80355 116 135 175 
-2.96006 1.29292 6.94212 44 43 61 
1.08682 0.865747 4.63868 127 128 146 
2.28487 0.826736 4.41829 113 133 177 
1.04828 0.895064 4.65023 122 117 140 
1.06146 0.904517 4.65494 86 69 99 
-2.91506 1.36148 6.94736 39 35 66 
-2.62908 1.33874 6.80742 89 107 140 
-3.03344 1.40166 6.91133 81 100 131 
1.02782 0.966311 4.65653 84 70 94 
-2.60235 1.41649 6.74773 155 170 203 
-2.48207 1.463 6.63293 98 83 100 
-2.48365 1.46851 6.62799 93 86 108 
-2.57227 1.49069 6.6515 114 100 119 
1.27008 1.03557 4.51565 97 101 120 
-2.6179 1.54686 6.64427 114 129 143 
-2.68999 1.54156 6.57452 156 154 183 
1.41468 1.04459 4.42248 110 105 134 
1.29557 1.06095 4.48147 104 78 104 
-1.23734 1.01258 4.2719 87 52 69 
1.68945 1.01952 4.25441 77 83 96 
-0.240913 0.978278 3.94436 84 45 63 
1.37297 1.16496 4.34179 93 75 97 
1.85797 1.13725 4.02774 55 43 64 
1.73229 1.165 4.10837 50 83 149 
1.73695 1.16384 4.1042 100 136 199 
1.86174 1.14609 4.03587 97 110 170 
1.71002 1.17463 4.12707 60 41 54 
1.75164 1.16495 4.08865 60 53 137 
1.83708 1.15335 4.04649 67 56 121 
1.86694 1.16559 4.02443 113 112 192 
1.87079 1.17057 4.01911 127 150 211 
1.79652 1.21417 4.06447 154 173 242 
1.79955 1.21779 4.05704 102 90 165 
1.70732 1.26002 4.12071 63 43 56 
1.87988 1.24653 4.01626 146 155 220 
-1.30591 1.32167 4.21948 109 125 145 
1.85477 1.26388 4.03922 24 47 115 
1.75099 1.28184 4.08708 66 96 143 
1.75406 1.28099 4.08429 120 147 200 
1.87129 1.27151 4.02017 42 27 73 
-1.01583 1.2844 3.8389 73 49 132 
0.814863 -1.70846 5.0051 135 115 137 
0.310824 -1.81654 5.33537 101 83 111 
0.300779 -1.81461 5.33616 140 118 141 
0.218996 -1.81989 5.37984 95 68 90 
0.670074 -1.7101 5.09547 72 57 74 
1.10029 -1.60267 4.84068 77 63 86 
1.11815 -1.57144 4.8262 70 55 76 
1.1286 -1.56063 4.81926 73 50 74 
1.0902 -1.55943 4.83627 91 70 91 
0.429729 -1.67542 5.23767 66 47 74 
-0.230109 -1.65048 5.17925 78 32 50 
0.874677 -1.56856 4.9709 132 116 136 
1.21717 -1.46993 4.74111 82 67 96 
-0.997182 -1.89524 6.1263 79 66 82 
0.108922 -1.68118 5.43292 132 104 119 
-0.966287 -1.87232 6.10051 82 67 91 
0.347147 -1.57712 5.27905 90 66 85 
1.39198 -1.38642 4.64099 47 31 50 
0.966159 -1.45956 4.89818 133 106 128 
1.11985 -1.42646 4.79466 92 62 84 
-0.796169 -1.6204 5.52967 65 34 52 
-0.0706427 -1.50536 5.13729 97 44 49 
-0.359904 -1.54791 5.32201 91 33 51 
0.517768 -1.50263 5.16788 77 61 86 
-2.23184 -1.98479 6.85464 84 65 81 
-1.28259 -1.81602 6.283 66 56 80 
0.972951 -1.41437 4.90148 80 56 78 
1.80717 -1.25723 4.36638 147 122 139 
-1.62886 -1.86955 6.50451 86 65 84 
-1.08237 -1.76589 6.15173 119 103 114 
1.35433 -1.33135 4.65139 88 59 77 
0.301986 -1.49176 5.29984 87 57 83 
0.644857 -1.42124 5.07308 101 75 96 
-1.28829 -1.73477 6.29248 93 66 78 
0.643234 -1.40214 5.0853 93 66 83 
-1.96547 -1.79236 6.66442 71 55 74 
0.748904 -1.34723 5.02505 91 73 95 
0.382587 -1.33538 5.22191 111 81 105 
-2.9868 -1.83304 7.27132 31 39 98 
0.651994 -1.26736 5.0545 97 71 82 
1.1794 -1.18007 4.74434 42 27 42 
1.17223 -1.18126 4.7635 100 79 94 
1.26959 -1.16137 4.69339 90 68 84 
1.28978 -1.1579 4.68135 71 60 79 
0.584271 -1.24638 5.09869 85 59 68 
-1.24556 -1.50839 6.21639 87 71 97 
-1.34366 -1.51869 6.27452 93 75 95 
0.300334 -1.2747 5.26993 61 41 52 
1.28342 -1.13193 4.67955 101 89 102 
1.29055 -1.12193 4.67353 55 42 59 
1.19199 -1.13125 4.7591 66 44 61 
-1.24878 -1.46877 6.23288 81 67 87 
1.16214 -1.12058 4.77103 101 83 105 
-2.61898 -1.64416 7.06508 96 96 125 
-2.41504 -1.61763 6.94904 61 52 74 
0.636198 -1.14378 5.08008 84 60 77 
-2.04787 -1.49619 6.70201 84 72 86 
0.630587 -1.12023 5.06053 97 87 112 
0.620961 -1.10372 5.05942 79 60 81 
0.443218 -1.12387 5.16631 108 75 96 
0.985694 -1.01779 4.84359 95 69 85 
1.0074 -1.00241 4.83124 89 64 77 
1.07606 -0.99591 4.80019 53 30 48 
-2.62956 -1.46279 7.07022 84 86 125 
-1.71308 -1.30175 6.48295 82 62 82 
0.973041 -0.967872 4.85602 83 55 67 
-0.984621 -1.11068 5.698 112 89 102 
0.0569336 -0.977349 5.05416 87 41 57 
1.58562 -0.865192 4.4898 85 62 88 
0.034934 -0.973124 5.06954 45 23 31 
-1.93083 -1.26225 6.61717 60 50 70 
-1.26178 -1.1734 6.22016 89 67 85 
0.576376 -0.95122 5.08559 97 63 79 
1.49913 -0.829398 4.54292 139 124 143 
-0.281704 -0.927276 5.11231 74 31 47 
0.831519 -0.891941 4.93655 95 72 92 
-0.0956972 -0.895435 5.09333 98 61 68 
0.624095 -0.881566 5.059 113 86 103 
1.29518 -0.80438 4.6481 122 105 122 
-1.80841 -1.12736 6.53432 78 59 77 
0.630518 -0.850912 5.03491 106 77 101 
-0.721002 -0.898027 5.38089 102 58 70 
1.09502 -0.787984 4.77796 77 65 81 
1.11304 -0.781713 4.75277 74 56 84 
-0.724202 -0.884798 5.40496 120 71 83 
-0.735636 -0.875809 5.38938 71 36 46 
-0.742002 -0.869986 5.38576 73 38 50 
1.03124 -0.765092 4.80138 79 62 83 
1.02009 -0.762271 4.80546 117 113 130 
1.02266 -0.750498 4.8177 87 76 98 
0.235661 -0.767388 4.9515 69 30 35 
-1.46759 -0.975705 6.33402 68 55 69 
-0.130652 -0.767081 5.08872 85 36 46 
0.784564 -0.746444 4.95239 117 109 130 
-0.766516 -0.802878 5.41647 70 38 50 
0.56562 -0.738915 5.07456 120 99 115 
0.74171 -0.725013 4.97692 84 69 91 
-2.54534 -1.00216 6.93673 85 70 94 
1.61942 -0.638903 4.44367 60 43 60 
-0.569518 -0.744929 5.41373 91 50 59 
-2.16147 -0.908875 6.72883 72 51 63 
1.03631 -0.609878 4.79714 104 102 120 
-0.42301 -0.672984 5.31835 76 32 39 
-0.71888 -0.668395 5.41464 69 30 37 
-1.50529 -0.752867 6.32571 61 39 60 
-1.10041 -0.668579 5.7427 53 29 39 
1.60812 -0.496819 4.43551 74 50 62 
-1.47232 -0.657274 6.28659 83 62 79 
0.674117 -0.520247 4.98407 145 127 143 
-2.2131 -0.699283 6.73186 70 61 81 
-1.48667 -0.641048 6.31387 65 49 62 
1.30165 -0.43171 4.60909 129 126 143 
0.180907 -0.431515 5.06932 65 33 40 
0.174963 -0.410171 5.08099 66 33 44 
-2.22808 -0.529716 6.72626 120 102 129 
1.40225 -0.30494 4.55157 69 53 66 
-0.4717 -0.345002 5.30459 60 27 32 
-0.486195 -0.338933 5.31794 147 130 114 
-0.529926 -0.30753 5.38967 83 64 47 
1.07642 -0.26651 4.73563 65 42 48 
1.13271 -0.218494 4.69857 82 62 81 
-0.130896 -0.229117 5.09785 80 39 47 
-0.192546 -0.225421 5.12297 73 36 44 
-0.439985 -0.225793 5.28211 173 156 138 
-0.538421 -0.215275 5.37357 143 120 105 
-0.0796224 -0.193672 5.08481 86 40 50 
0.248606 -0.188834 5.0262 65 28 36 
-0.089309 -0.181689 5.09153 80 40 48 
-1.697 -0.224498 6.39133 55 45 62 
-0.180559 -0.174309 5.14765 66 28 41 
-0.402327 -0.172418 5.30955 153 142 120 
1.06892 -0.147731 4.72867 89 63 79 
1.59861 -0.115007 4.40156 140 119 134 
1.1341 -0.12161 4.69219 70 54 71 
1.12837 -0.111047 4.69263 116 95 118 
1.13034 -0.097676 4.68872 75 51 70 
1.19155 -0.0734314 4.65255 88 68 83 
-0.511398 -0.0691214 5.23454 185 173 153 
1.42695 -0.0556222 4.4946 47 34 51 
-0.0859255 -0.0457947 5.07773 75 34 42 
-0.475348 -0.0426245 5.23469 219 208 180 
-0.121138 -0.0416291 5.08881 75 33 45 
-0.554903 -0.0404679 5.33769 126 97 85 
-2.32075 -0.0460095 6.73822 80 76 100 
-0.360538 -0.0371711 5.23309 171 153 133 
-0.219823 -0.0261834 5.16119 84 41 48 
-0.436607 -0.0224519 5.20281 100 82 73 
-0.447595 -0.0190599 5.21701 177 163 140 
-0.403023 -0.0176725 5.23152 180 170 143 
0.676612 -0.00532764 4.6177 89 47 55 
-1.01783 -0.0007214 5.76346 73 32 38 
-1.0834 0.00206503 5.82482 78 34 41 
-0.72139 0.0193607 5.45918 71 33 41 
-1.10708 0.0242455 5.83429 75 32 41 
-0.121114 0.0402198 5.08674 84 39 44 
-0.166643 0.0446037 5.11609 93 42 51 
-0.381306 0.0557951 5.2941 119 102 82 
-0.758834 0.087317 5.45795 80 33 41 
0.30739 0.0903854 4.95893 102 47 52 
0.291814 0.101506 4.95857 58 19 24 
1.23244 0.10429 4.62007 101 79 98 
1.27688 0.103098 4.58233 102 80 95 
1.18702 0.106598 4.64625 120 109 127 
-1.78318 0.151536 6.41318 54 43 54 
1.54953 0.107513 4.41882 103 74 89 
1.38056 0.112269 4.51787 116 109 123 
1.51837 0.110186 4.44103 106 85 106 
0.0860568 0.133661 5.09298 69 23 33 
1.18871 0.124105 4.64146 128 125 140 
0.289201 0.13582 4.96704 78 34 35 
-0.494137 0.142901 5.1232 139 130 128 
-0.484672 0.142765 5.12485 170 157 153 
0.0671331 0.153502 5.10884 88 41 47 
-0.764882 0.170472 5.47683 69 32 45 
-0.519048 0.15987 5.14756 192 189 182 
-0.906959 0.180398 5.67927 65 22 29 
-0.433401 0.173296 5.12605 125 107 105 
-0.923172 0.194266 5.66963 53 25 30 
-0.460325 0.180921 5.10404 125 116 120 
-0.549677 0.185504 5.13261 172 167 177 
-0.491637 0.187526 5.09736 152 144 134 
-0.472788 0.187299 5.10059 197 198 185 
-0.45209 0.190758 5.11931 213 207 194 
-0.463166 0.196512 5.10009 137 126 121 
1.18762 0.195536 4.62595 61 45 62 
-0.366938 0.227881 5.13913 169 161 143 
-0.485869 0.229952 5.13749 114 112 117 
-0.316963 0.232063 5.11147 104 84 77 
-0.457375 0.242176 5.10681 132 126 111 
-0.405575 0.240892 5.09872 78 65 72 
1.6736 0.206159 4.34579 71 53 73 
-0.299805 0.254397 5.09205 184 180 171 
-0.321889 0.260857 5.08834 105 81 74 
-0.298406 0.262252 5.12274 210 207 196 
0.207103 0.255768 5.01289 84 37 45 
-0.299528 0.276109 5.08725 49 28 34 
-0.281316 0.283004 5.10355 52 30 33 
-0.268525 0.28908 5.10335 116 99 105 
0.898958 0.27245 4.80152 107 95 112 
0.463705 0.300377 4.87249 85 36 42 
0.628975 0.29218 4.62902 61 29 37 
-2.9555 0.476651 7.01257 40 41 63 
-1.14277 0.427666 5.81127 70 32 39 
-1.2037 0.433196 5.84208 69 36 45 
-1.43718 0.446011 5.85427 85 43 48 
-1.41393 0.484762 5.83394 137 95 109 
-2.05805 0.566587 6.52041 68 63 81 
1.11728 0.403853 4.64648 102 80 101 
-2.1363 0.574133 6.57278 36 31 54 
1.10999 0.407095 4.66491 139 131 154 
-2.1171 0.581801 6.56426 127 122 182 
-2.06643 0.577386 6.52114 139 159 220 
-2.96666 0.644509 7.02857 85 94 127 
-2.13793 0.605846 6.56516 144 147 205 
-2.05039 0.604237 6.53502 156 181 247 
-2.95762 0.675501 7.01745 38 45 72 
-2.10912 0.66557 6.53948 29 31 63 
-2.09414 0.677467 6.53101 163 179 236 
2.25054 0.494321 4.49805 98 112 147 
-0.525413 0.574698 5.0841 79 67 105 
1.28772 0.513941 4.51964 84 123 213 
-2.93735 0.796663 6.97983 43 56 90 
-0.542527 0.582421 5.09532 104 109 150 
-2.11073 0.752145 6.54441 156 162 216 
-2.06481 0.746955 6.50311 160 177 233 
-2.95454 0.809385 7.0102 27 39 63 
-0.479935 0.586309 5.04108 127 140 190 
-0.94251 0.622834 5.33662 117 65 80 
-0.615877 0.601026 5.14836 98 52 69 
0.640592 0.513292 4.39076 108 74 90 
-2.04965 0.763978 6.50664 21 21 48 
-2.95126 0.831335 7.0023 94 114 147 
0.506944 0.532997 4.47327 87 41 53 
-0.211877 0.586731 4.90155 82 41 52 
-1.4676 0.681272 5.6467 84 51 60 
-0.873785 0.636966 5.28474 87 43 58 
-0.544378 0.611955 5.08286 75 42 56 
0.498622 0.538775 4.47399 129 83 94 
0.120592 0.569066 4.70009 121 78 89 
-0.161788 0.596165 4.87201 106 57 73 
0.1641 0.57363 4.68168 106 53 69 
0.455847 0.550135 4.49416 91 48 53 
0.245785 0.567879 4.61908 84 50 65 
0.373014 0.559125 4.54801 74 41 48 
0.579348 0.544684 4.42712 81 51 64 
-1.27322 0.685449 5.53948 70 39 51 
1.76888 0.524499 4.24791 125 96 105 
-1.49769 0.710418 5.65346 113 78 81 
1.07605 0.583737 4.65712 64 48 66 
1.3142 0.571255 4.53296 73 54 75 
1.32146 0.570629 4.52869 76 56 78 
1.42 0.585966 4.44641 89 65 88 
0.387209 0.615759 4.54752 116 62 73 
0.0474474 0.648842 4.74416 136 90 102 
-1.37063 0.766896 5.58307 96 56 66 
-0.942794 0.733302 5.33817 111 59 75 
-0.0782476 0.665187 4.80044 83 45 62 
-0.0451809 0.664928 4.8006 91 46 54 
0.0323362 0.47836 3.44923 90 45 58 
0.278542 0.637889 4.58701 96 46 56 
0.544258 0.999106 7.18461 78 39 43 
0.581869 0.616621 4.42518 94 48 59 
0.249258 0.647099 4.62993 104 52 68 
0.380668 0.671125 4.53744 92 52 64 
-2.59548 1.15425 6.79407 144 163 199 
-2.60737 1.16728 6.79166 102 118 157 
0.952579 0.874285 4.70978 102 96 121 
1.18478 0.855052 4.59237 75 62 85 
1.15226 0.859462 4.58893 129 131 152 
1.04776 0.894615 4.64792 122 117 140 
-2.91907 1.34514 6.94645 78 77 113 
-2.61886 1.33312 6.77755 100 120 157 
2.28374 0.907946 4.40451 73 107 154 
-2.60148 1.41754 6.75438 159 175 207 
-2.47191 1.4423 6.65613 99 86 105 
-2.49088 1.47097 6.65094 87 78 99 
-1.23691 0.971285 4.27509 71 42 57 
-2.66575 1.54214 6.59917 145 171 210 
-2.68398 1.53752 6.56296 153 160 190 
-0.789863 0.94001 4.01666 83 46 62 
-1.26972 1.01247 4.28611 98 51 65 
-0.358028 0.923484 3.91533 117 67 86 
1.415 1.04402 4.4221 110 105 134 
1.69331 1.0203 4.25865 86 90 104 
1.54689 1.03932 4.32647 100 94 110 
-0.94238 0.988223 4.10008 110 61 82 
-0.820943 0.979969 4.02061 97 53 69 
1.59327 1.05163 4.31994 81 59 73 
0.455828 1.08364 4.43932 70 45 54 
0.979539 1.20794 4.56074 60 56 73 
-0.335941 1.04614 3.9149 97 46 67 
1.37522 1.16572 4.34029 89 71 93 
-0.32847 1.05885 3.91296 122 71 92 
1.71783 1.15228 4.11909 48 30 41 
1.88378 1.13373 4.03247 66 52 66 
1.73522 1.15985 4.11746 23 24 46 
1.74592 1.16466 4.10618 142 170 231 
1.84668 1.14757 4.03987 131 161 218 
1.85703 1.14464 4.02939 111 129 190 
1.70855 1.17284 4.12174 54 37 51 
1.75192 1.1637 4.08415 83 71 142 
1.83764 1.15502 4.0478 41 36 104 
1.71979 1.17922 4.11128 13 19 41 
1.88423 1.15671 4.0122 21 30 46 
1.87391 1.17126 4.02208 84 105 165 
1.80005 1.21546 4.07167 154 173 242 
1.8106 1.21497 4.06099 146 173 238 
1.72228 1.24632 4.11754 66 43 59 
1.89208 1.24293 4.0127 50 32 58 
1.76596 1.27018 4.07534 84 67 139 
1.86425 1.26441 4.01775 139 145 206 
2.06659 1.29806 4.08936 93 79 88 
1.80397 1.28415 4.04054 100 120 140 
-1.0676 1.27858 3.90115 211 222 255 
-1.1611 1.29768 3.93647 183 184 241 
-1.16949 1.29932 3.93116 52 45 82 
1.09347 -1.59551 4.82397 80 58 79 
0.602888 -1.67487 5.1211 150 133 152 
1.11909 -1.56957 4.82501 70 55 76 
0.0152231 -1.75566 5.49444 102 80 100 
-0.234208 -1.64772 5.16772 81 37 53 
0.306204 -1.69199 5.31573 92 72 89 
0.871291 -1.56638 4.96224 120 102 124 
0.108648 -1.67697 5.4159 133 105 120 
0.41599 -1.59079 5.23834 89 72 91 
1.15213 -1.43757 4.78159 89 60 81 
0.343016 -1.57579 5.26626 100 78 98 
1.39042 -1.38535 4.64163 45 23 44 
1.37835 -1.38302 4.64798 126 107 133 
0.974454 -1.4521 4.89991 90 71 99 
1.29755 -1.39129 4.69678 50 39 55 
1.37859 -1.36076 4.62531 97 77 104 
1.07653 -1.40923 4.82931 96 68 88 
-0.360245 -1.54515 5.30848 100 44 63 
-1.28083 -1.81509 6.28259 77 65 89 
0.969497 -1.41291 4.89342 98 73 94 
1.80246 -1.25646 4.36421 153 130 148 
-1.63002 -1.87069 6.50812 80 61 80 
1.36418 -1.33602 4.64725 82 66 79 
-2.26528 -1.96658 6.87799 133 110 127 
1.17354 -1.34683 4.7519 91 74 94 
1.64621 -1.25155 4.47426 97 72 97 
0.488634 -1.44308 5.17405 106 75 95 
0.639181 -1.39962 5.07303 97 74 95 
1.17419 -1.32086 4.78368 68 58 76 
-0.40852 -1.36096 5.21126 63 26 38 
1.38802 -1.20291 4.62198 70 55 74 
1.39931 -1.19424 4.61341 68 54 77 
0.491905 -1.32505 5.16765 73 60 78 
0.385267 -1.34268 5.24927 110 80 104 
-1.82037 -1.66841 6.5775 79 62 79 
-1.64254 -1.638 6.46175 138 120 137 
0.464173 -1.30881 5.16187 111 97 115 
-2.97959 -1.8263 7.24541 37 65 118 
-1.24095 -1.55505 6.20067 74 59 72 
0.323548 -1.31818 5.27284 74 55 73 
1.05835 -1.19561 4.82914 81 64 77 
1.16423 -1.17775 4.75764 112 92 107 
0.586415 -1.24988 5.11171 85 57 66 
1.28005 -1.14274 4.67152 106 88 107 
0.290509 -1.27121 5.24741 50 29 35 
-2.60106 -1.63341 7.01652 96 96 125 
-2.40742 -1.6123 6.93002 61 52 74 
1.48133 -1.00739 4.55645 83 72 83 
1.49352 -1.00449 4.54147 101 93 115 
0.617735 -1.10234 5.05355 98 74 95 
0.727402 -1.07256 4.99851 109 91 103 
1.00402 -1.00286 4.82953 95 74 87 
-1.64667 -1.3287 6.421 132 116 132 
1.01371 -0.994793 4.82385 117 96 113 
0.987261 -0.997894 4.85424 87 60 71 
-1.70835 -1.3012 6.4715 78 61 79 
0.97618 -0.971314 4.87166 83 55 67 
1.58182 -0.865078 4.49181 88 66 87 
-1.25217 -1.17941 6.1874 126 100 113 
-0.312346 -0.932112 5.11087 50 25 32 
0.828089 -0.886768 4.92711 90 64 90 
-0.0817238 -0.914398 5.09904 58 25 32 
1.48608 -0.812736 4.52915 67 44 60 
-3.05681 -1.27572 7.17061 32 59 97 
1.10281 -0.840862 4.77026 71 53 69 
-0.296765 -0.873834 5.10717 101 68 80 
1.20532 -0.78767 4.70865 70 54 80 
-0.721873 -0.897117 5.38738 114 65 78 
1.0947 -0.789811 4.78188 81 68 83 
1.03124 -0.76369 4.8042 80 63 84 
1.01785 -0.760301 4.80908 111 105 127 
1.02447 -0.751653 4.82323 98 87 107 
-2.95604 -1.09361 7.14873 48 72 122 
-1.49549 -0.957225 6.31144 81 63 78 
-0.134985 -0.766459 5.08556 85 42 49 
-0.770356 -0.800513 5.41491 65 31 41 
0.718038 -0.732936 4.98562 133 110 128 
0.567929 -0.73966 5.08387 120 99 115 
-2.54793 -1.00637 6.94362 97 83 106 
1.61217 -0.636269 4.43596 60 44 58 
-0.122779 -0.717596 5.05074 78 37 46 
-0.641285 -0.761781 5.45925 67 34 44 
-1.43636 -0.869377 6.26048 132 108 130 
-2.15876 -0.906453 6.70717 72 55 67 
1.02971 -0.640597 4.79709 82 72 89 
-0.483546 -0.671378 5.34689 72 36 48 
-2.22165 -0.839411 6.776 56 47 64 
-0.428814 -0.609836 5.31721 71 34 46 
1.60311 -0.495488 4.42932 91 63 75 
-0.477206 -0.571767 5.32132 114 69 79 
-0.546578 -0.568957 5.37462 69 31 42 
-2.15819 -0.706883 6.72094 53 42 56 
-0.646634 -0.572096 5.43444 83 41 55 
0.673741 -0.519599 4.99038 145 127 143 
-0.627973 -0.560678 5.41499 67 34 45 
1.20612 -0.44958 4.68423 72 48 69 
-1.39749 -0.580926 6.23367 75 59 72 
1.29291 -0.430406 4.61714 93 72 91 
0.859124 -0.426851 4.89321 127 124 144 
0.0491255 -0.442616 5.16584 72 35 43 
0.170277 -0.408275 5.07464 83 43 53 
-2.48256 -0.505017 6.86379 68 57 69 
0.0489079 -0.358516 5.13987 42 19 22 
1.13152 -0.218647 4.69601 82 62 81 
-0.505135 -0.234032 5.36299 126 101 97 
1.12316 -0.175406 4.6905 139 118 133 
-0.551737 -0.197752 5.34574 142 118 105 
0.191984 -0.186149 5.04388 70 42 54 
-1.69567 -0.227373 6.38607 55 45 62 
-0.40495 -0.177148 5.31699 143 131 110 
-0.572671 -0.160866 5.354 130 97 93 
-0.374805 -0.159077 5.28683 210 196 169 
1.61113 -0.121639 4.39661 80 53 70 
1.12407 -0.109505 4.69438 127 105 126 
1.12988 -0.0988509 4.6892 79 54 74 
0.15854 -0.0953129 5.06494 105 58 68 
0.191946 -0.0957329 5.04324 70 35 42 
1.25866 -0.0830932 4.61866 87 71 84 
-1.02012 -0.0918167 5.76827 61 31 36 
1.19104 -0.0731091 4.65275 88 68 83 
0.920548 -0.0648969 4.81055 49 34 49 
1.40966 -0.0541586 4.50237 75 56 75 
-2.35847 -0.0529424 6.74449 80 63 80 
-0.209893 -0.0357029 5.13926 87 41 51 
-0.460114 -0.0331751 5.21752 222 211 183 
-2.31717 -0.0324321 6.72759 108 99 128 
-0.437024 -0.0241212 5.22309 100 82 73 
-0.450721 -0.0198706 5.20005 170 153 127 
-1.16942 -0.0186208 5.82094 85 39 49 
-0.401988 -0.0171936 5.22652 180 170 143 
-0.421318 -0.0128967 5.22283 175 165 138 
0.674669 -0.00495691 4.58907 72 34 38 
0.639813 0.0106514 4.63605 64 31 38 
-0.123493 0.0411475 5.08012 99 50 56 
-2.13939 0.0589046 6.61566 67 55 74 
-0.170489 0.0481715 5.1151 79 32 40 
0.293181 0.0628625 4.96051 81 38 48 
1.157 0.0728991 4.65653 101 72 84 
0.303883 0.0921784 4.95281 91 39 43 
0.180843 0.0985391 4.94733 136 86 97 
-0.349278 0.118639 5.32107 112 86 71 
0.372152 0.110419 4.92038 82 35 43 
1.27715 0.102291 4.58545 102 80 95 
1.18312 0.10724 4.63551 114 105 122 
1.54321 0.109329 4.41019 110 81 94 
-0.520278 0.13864 5.19192 170 164 168 
0.354843 0.133359 4.93667 81 31 38 
0.362178 0.133189 4.93557 60 24 32 
1.18225 0.124796 4.63205 115 113 132 
-0.50674 0.142482 5.13407 176 171 167 
-0.483979 0.142156 5.13811 181 171 161 
-0.53124 0.152828 5.14692 111 99 98 
-0.924956 0.195302 5.68931 41 18 25 
0.54211 0.166225 4.82062 78 33 36 
-0.523894 0.187084 5.11306 153 142 146 
-0.507302 0.186327 5.10073 222 215 204 
-0.450853 0.191725 5.11275 215 210 196 
-0.464124 0.19861 5.08976 129 119 117 
-0.441354 0.205792 5.09172 192 183 166 
1.45821 0.180546 4.45424 126 112 129 
-0.520048 0.225066 5.11296 130 129 132 
-0.471132 0.22471 5.08276 42 30 33 
-0.461179 0.244085 5.09933 134 127 117 
-0.404398 0.243521 5.108 58 45 55 
-0.442157 0.250987 5.10081 59 41 31 
-1.17888 0.295396 5.80281 102 50 58 
0.260613 0.253699 4.97937 90 39 48 
1.17459 0.239404 4.62928 95 73 94 
-0.166189 0.267403 5.10146 82 36 46 
-0.259021 0.271745 5.11772 168 153 134 
-0.266591 0.279321 5.11538 94 73 72 
-0.281841 0.283233 5.11313 52 30 33 
-0.209839 0.285321 5.13786 71 31 38 
-0.123166 0.279813 5.0658 94 44 55 
-0.543702 0.292068 5.19214 34 27 30 
0.629546 0.264206 4.63751 72 44 53 
0.893873 0.273851 4.80319 112 103 121 
-0.714053 0.327663 5.4189 90 46 56 
0.462822 0.302515 4.86304 73 28 37 
-2.96654 0.479079 7.03249 33 35 57 
-1.14209 0.430773 5.81523 66 29 36 
-1.43346 0.444263 5.82724 70 33 41 
-1.41822 0.484163 5.83661 136 94 108 
1.62446 0.368075 4.34385 121 111 124 
-2.04981 0.559851 6.5203 34 27 46 
1.10217 0.407581 4.6466 137 128 149 
1.14372 0.406925 4.64523 119 117 140 
-2.11991 0.584452 6.5705 153 156 217 
-2.07004 0.579601 6.52231 158 178 239 
-2.05302 0.581471 6.51479 82 117 180 
-2.0307 0.587969 6.50619 18 24 67 
-2.0568 0.607067 6.54249 163 182 248 
-2.938 0.661163 7.01482 38 40 68 
-2.94056 0.67365 6.97083 82 88 118 
1.50031 0.442716 4.42066 94 63 74 
-2.08433 0.666246 6.5362 15 35 89 
-2.03635 0.689357 6.52413 50 46 80 
1.12814 0.491008 4.65302 77 61 81 
-2.12877 0.723471 6.53705 154 161 220 
-2.15635 0.733246 6.5762 41 38 68 
-0.527206 0.574424 5.07067 79 68 105 
-0.480412 0.57636 5.05947 125 145 193 
1.14811 0.527584 4.63481 117 114 138 
-2.11578 0.751493 6.55757 157 165 223 
-2.07181 0.749372 6.54328 154 177 236 
-0.543872 0.587361 5.08398 132 126 164 
0.248892 0.533763 4.62292 97 52 70 
0.634578 0.507481 4.40649 49 23 34 
-0.290575 0.572726 4.93486 89 47 62 
-2.04814 0.759605 6.4993 17 19 43 
0.638636 0.51361 4.38866 98 69 80 
-2.94261 0.825387 6.96311 92 101 134 
0.647956 0.519662 4.38478 88 44 50 
0.442769 0.537019 4.51006 72 32 40 
0.507265 0.534496 4.4809 87 41 53 
-0.477815 0.60773 5.07229 90 49 59 
0.112064 0.565144 4.71272 74 36 46 
0.174408 0.55993 4.67524 102 56 72 
-1.46315 0.678934 5.63794 84 49 56 
-0.547066 0.611095 5.07837 74 43 55 
0.118684 0.569846 4.69444 107 70 77 
-0.411234 0.6154 5.00411 86 57 71 
-0.2828 0.604741 4.92865 92 56 69 
0.125689 0.576543 4.69256 83 43 54 
0.371546 0.559782 4.55084 101 58 63 
0.455729 0.553084 4.50419 75 40 45 
0.578074 0.544241 4.43013 77 46 61 
-2.92822 0.863899 6.99137 24 27 60 
-1.60397 0.705666 5.71705 67 45 57 
-1.40292 0.689609 5.58364 66 41 50 
-2.63804 1.84653 14.9154 95 56 73 
0.967731 0.588247 4.72324 112 110 131 
-1.17365 0.685515 5.47306 132 83 100 
-0.184662 0.610338 4.87987 136 89 105 
1.07334 0.585942 4.65797 59 45 59 
1.30629 0.569265 4.51924 86 67 88 
-2.93401 0.882559 6.98026 46 71 112 
1.031 0.620518 4.68838 53 32 45 
-1.24926 0.736707 5.49829 90 47 58 
-0.0228666 0.648514 4.78646 102 52 62 
0.384078 0.615798 4.53733 111 58 72 
-1.59866 0.78001 5.69813 76 42 56 
-1.36684 0.767709 5.57337 77 46 57 
-1.30564 0.763227 5.54476 66 30 39 
-0.407646 0.69327 5.00634 85 47 65 
0.275171 0.640591 4.59779 129 76 89 
0.581432 0.617633 4.43032 94 50 60 
0.24508 0.646976 4.61669 92 50 67 
-1.3932 0.801841 5.5783 93 54 66 
1.41394 0.646403 4.452 74 54 76 
1.07808 0.702962 4.64829 87 69 88 
1.40443 0.706405 4.46413 80 62 75 
1.53896 0.812093 4.3887 62 49 66 
1.08778 0.866522 4.64489 124 124 142 
1.09956 0.861963 4.62106 126 123 145 
1.17536 0.854134 4.57817 67 60 93 
1.15927 0.863141 4.60997 133 135 156 
-2.51029 1.27193 6.72973 64 54 70 
1.04852 0.897162 4.65647 122 117 140 
-2.91433 1.34624 6.93305 63 62 96 
0.48711 0.863813 4.45075 76 36 44 
1.05774 0.903105 4.65088 91 74 102 
-2.91877 1.36517 6.95631 39 35 66 
-1.34537 0.88767 4.34176 69 37 51 
-1.23865 0.880431 4.28844 85 41 54 
2.25777 0.915036 4.40768 82 103 127 
2.28104 0.913684 4.40146 125 156 192 
-2.60444 1.4161 6.75128 155 170 203 
-0.306155 0.830296 3.94147 104 56 71 
-0.337527 0.830253 3.92741 103 55 72 
0.437691 0.955842 4.4584 104 57 65 
-2.48409 1.46694 6.63281 87 78 99 
-2.56856 1.48795 6.64549 118 105 122 
0.393427 1.00619 4.48855 111 65 76 
1.32676 1.0067 4.46249 127 108 125 
1.26936 1.03648 4.50892 111 107 130 
-2.63664 1.53996 6.67895 37 42 60 
1.10414 1.06515 4.61106 59 45 62 
-2.62016 1.54587 6.63701 119 130 145 
-2.68417 1.54136 6.57383 173 178 209 
1.40403 1.04446 4.44189 61 46 72 
-0.357564 0.925681 3.92059 110 59 76 
-1.23486 1.01036 4.26401 95 56 74 
1.4126 1.0452 4.41646 122 118 144 
-0.619718 0.928826 3.90209 105 61 76 
-1.12073 1.00267 4.19698 72 41 59 
1.14946 1.10245 4.59846 110 103 133 
1.53452 1.04567 4.34811 126 103 117 
-0.942885 0.987903 4.09567 109 65 85 
-0.360032 0.953368 3.91559 112 62 81 
-0.224142 0.963959 3.95786 115 62 80 
0.492318 1.07963 4.43751 82 41 50 
-1.45262 1.10427 4.39 80 48 69 
-1.24879 1.10246 4.26834 139 95 116 
0.982302 1.21326 4.57643 60 53 73 
-0.338213 1.04348 3.90155 95 49 67 
-0.599496 1.04457 3.88494 93 58 82 
1.37437 1.16747 4.33753 78 63 85 
1.71874 1.15545 4.1238 50 31 42 
1.72964 1.15878 4.11282 18 20 35 
1.85849 1.13708 4.0237 45 32 51 
1.73598 1.16319 4.10584 90 128 191 
1.71074 1.17539 4.12681 54 37 51 
1.8543 1.14628 4.02792 159 184 245 
1.75318 1.16778 4.08831 47 44 127 
1.71943 1.17925 4.11788 18 20 34 
1.88996 1.16164 4.02639 19 28 44 
1.72316 1.19028 4.11194 118 126 170 
1.8694 1.16505 4.02773 66 58 141 
1.8735 1.16385 4.02351 21 21 76 
1.8725 1.1788 4.02126 162 172 240 
1.7938 1.20423 4.05506 16 23 93 
1.78683 1.20894 4.05325 160 178 249 
1.80307 1.22347 4.06248 39 22 96 
1.72183 1.24872 4.11643 40 23 35 
1.87382 1.24228 4.00487 147 160 228 
1.88697 1.2431 4.00722 38 17 57 
1.75455 1.2761 4.08453 144 166 226 
1.84944 1.26352 4.04368 13 27 64 
1.7467 1.28735 4.10222 13 24 44 
1.85348 1.26018 4.0129 136 161 224 
1.85929 1.26292 4.01243 143 154 213 
-1.15915 1.29567 3.93175 193 197 252 
0.627953 -1.71998 5.12425 128 105 122 
0.672508 -1.71588 5.11179 72 57 74 
0.60316 -1.70139 5.1495 130 116 142 
1.08659 -1.56033 4.84175 95 77 94 
0.0142562 -1.74677 5.47563 104 76 100 
0.311327 -1.69599 5.32001 64 46 66 
1.5397 -1.41173 4.55496 38 29 45 
0.173994 -1.66053 5.37513 137 119 133 
2.24392 -1.4254 4.67015 112 114 165 
0.419616 -1.59206 5.2341 64 50 71 
