ply
format ascii 1.0           { ascii/binary, format version number }
comment made by Greg Turk  { comments keyword specified, like all lines }
comment this file is a cube
element vertex 1285
property float x
property float y
property float z
property uchar red
property uchar green
property uchar blue
end_header
1.66184 0.303619 5.02321 74 118 215 
1.66154 0.316701 5.02227 77 122 213 
1.65444 0.331059 5.0074 69 114 210 
-2.26109 0.331986 4.80837 42 55 118 
-2.15683 0.33267 4.81365 31 53 126 
-2.26773 0.333085 4.80927 119 122 163 
-2.27085 0.33774 4.79802 73 59 90 
-2.15401 0.340262 4.83078 92 107 155 
-2.26108 0.34389 4.8084 149 145 202 
-2.28884 0.354794 4.80956 35 40 58 
-2.2327 0.370845 4.80579 98 78 124 
-0.187875 0.347429 4.48678 122 136 181 
-2.23778 0.373002 4.79868 26 18 42 
1.65678 0.390292 5.01445 81 123 214 
1.6603 0.392317 5.01191 91 130 218 
-2.17229 0.37789 4.81081 33 36 57 
0.867433 0.360946 4.55672 89 49 64 
1.17377 0.361509 4.56891 70 34 46 
-1.45856 0.356423 4.41123 69 47 53 
-1.39893 0.357681 4.42899 62 32 37 
0.636464 0.37649 4.53482 105 54 70 
1.02245 0.377642 4.54988 84 37 52 
0.191479 0.375903 4.50558 90 47 61 
0.262655 0.377005 4.51655 90 43 58 
-0.115933 0.377284 4.49664 77 40 52 
-0.565903 0.376485 4.46725 84 36 50 
-1.2418 0.374773 4.42498 67 40 53 
0.63067 0.384446 4.53571 138 91 105 
0.722117 0.394953 4.54017 75 42 58 
1.10453 0.395608 4.54565 69 37 52 
2.21713 0.439428 5.05397 127 100 107 
-0.033802 0.39488 4.49664 89 47 64 
1.68098 0.448714 5.03466 66 51 79 
-1.4331 0.396491 4.41558 106 104 115 
-1.00659 0.451514 4.43988 69 34 48 
0.484027 0.46578 4.52941 90 44 57 
0.719547 0.468771 4.53641 86 42 56 
-0.033774 0.466029 4.49322 86 43 57 
-0.647107 0.465101 4.46442 101 50 71 
1.81417 0.590273 5.03969 65 52 76 
0.796023 0.517711 3.84756 153 112 132 
-2.06826 0.716348 4.81677 43 33 43 
-1.85436 0.720214 4.81628 47 31 43 
1.78557 0.92806 5.01476 121 117 144 
1.995 0.947447 5.02032 91 66 85 
1.53957 0.963855 4.99494 119 105 118 
1.79447 1.05157 4.93133 86 67 89 
2.19555 1.06198 4.92649 69 52 62 
2.36926 1.06332 4.93583 41 31 57 
2.2176 1.07064 4.93744 46 44 63 
2.35565 1.07175 4.94325 154 180 238 
2.3647 1.07016 4.93521 164 182 242 
2.22214 1.07686 4.92849 146 185 243 
2.22896 1.07713 4.92935 166 187 248 
2.23834 1.0802 4.92163 80 67 147 
2.37741 1.08941 4.93484 71 70 148 
2.20301 1.09279 4.93366 22 28 66 
2.37707 1.0934 4.92529 135 147 209 
2.29632 1.13314 4.94525 172 186 252 
2.30136 1.13325 4.92374 163 183 246 
2.19844 1.15784 4.92824 56 38 58 
2.39675 1.16537 4.93048 59 39 81 
2.18235 1.17099 4.92567 49 28 41 
2.4139 1.17777 4.93051 32 34 46 
2.35563 1.18263 4.91633 138 158 223 
2.37779 1.19654 4.93563 38 23 58 
2.23767 1.19726 4.93445 87 114 161 
2.24255 1.19733 4.93092 136 157 206 
2.23544 1.20209 4.9437 25 39 70 
-0.0389517 1.075 3.28914 70 49 135 
-0.065814 1.0798 3.27153 41 49 123 
2.09016 -1.70175 5.15656 66 56 77 
0.868663 -1.67697 5.09064 93 65 88 
1.48173 -1.68815 5.12661 86 67 95 
0.789374 -1.60489 5.09291 96 81 107 
0.789184 -1.58202 5.09179 98 78 102 
1.60265 -1.58498 5.11992 87 70 100 
-1.20804 -1.51718 4.98323 102 71 86 
1.53187 -1.55434 5.1154 91 64 90 
0.791166 -1.52252 5.0875 92 63 81 
-1.40474 -1.46437 4.97096 77 56 66 
0.75818 -1.48889 5.07988 63 49 68 
1.22653 -1.48602 5.11044 121 105 124 
1.79459 -1.49402 5.13411 113 83 107 
-0.931675 -1.45125 5.00605 45 34 58 
-0.936041 -1.42562 4.98717 64 50 72 
-0.937452 -1.41068 4.9809 71 60 76 
-1.16147 -1.34959 4.98302 100 71 89 
-1.21516 -1.29045 4.96908 100 74 94 
1.41974 -1.31527 5.11497 106 98 115 
-1.20794 -1.27114 4.97088 134 111 124 
-1.81919 -1.26 4.94136 59 44 58 
-2.31222 -1.25377 4.9205 36 27 45 
1.55485 -1.30393 5.12052 58 38 52 
1.53915 -1.29892 5.11278 121 102 115 
-1.66218 -1.255 4.94931 75 53 67 
0.916909 -1.27989 5.07857 110 97 124 
0.294708 -1.1602 4.626 141 94 110 
0.909179 -1.26408 5.07978 86 60 82 
-0.409898 -1.13929 4.59926 76 39 53 
0.091788 -1.13687 4.61603 62 31 43 
0.205203 -1.13518 4.62121 141 84 98 
1.68315 -1.25854 5.12081 122 105 124 
0.288073 -1.12896 4.63589 136 83 105 
1.52639 -1.23998 5.11475 93 73 96 
-1.67707 -1.18959 4.94758 53 49 63 
-1.37401 -1.19065 4.96205 77 57 64 
0.128021 -1.08611 4.61933 78 40 52 
-2.36266 -1.09271 4.89687 124 115 136 
-2.29032 -1.08627 4.89544 139 125 141 
1.42055 -1.10457 5.0986 132 112 131 
2.07291 -1.10995 5.13324 62 49 69 
1.69508 -1.10148 5.10832 76 57 83 
1.30237 -1.09562 5.09411 95 63 84 
-1.52689 -1.05617 4.94518 56 36 52 
-1.5931 -1.05092 4.93467 58 42 65 
-1.59947 -1.04417 4.93835 127 115 132 
-0.371318 -0.994194 4.7176 67 31 38 
0.909495 -1.05558 5.05215 143 131 153 
-0.294867 -0.969923 4.71392 83 42 50 
-0.277767 -0.968224 4.71547 61 28 36 
0.901656 -1.03999 5.06734 118 94 114 
-0.906742 -0.932024 4.68643 64 37 47 
0.894804 -0.980402 5.05851 120 98 114 
-1.5134 -0.94929 4.9343 69 55 68 
1.45055 -0.965955 5.0825 83 60 79 
-0.189372 -0.894911 4.71919 75 37 49 
-1.50854 -0.895313 4.93517 56 45 65 
1.91465 -0.928167 5.11811 143 129 146 
1.1415 -0.917895 5.07588 138 122 143 
-1.93695 -0.883281 4.89878 122 98 122 
-1.94525 -0.88075 4.90047 72 58 80 
1.44336 -0.917996 5.1039 81 63 84 
0.834996 -0.905546 5.06394 128 108 125 
1.46617 -0.909417 5.09069 80 63 91 
0.879813 -0.903909 5.07861 106 83 103 
1.57121 -0.908217 5.09537 89 71 95 
2.33227 -0.913319 5.12636 88 70 95 
-1.21405 -0.877067 4.95227 107 88 107 
1.37111 -0.899897 5.09266 79 58 85 
1.00708 -0.889605 5.06576 125 102 121 
-0.387745 -0.811266 4.70632 81 39 51 
0.0371011 -0.796848 4.7205 67 32 38 
-0.0664931 -0.774504 4.72986 108 68 76 
1.35859 -0.803235 5.0757 101 73 96 
-1.42333 -0.737437 4.92485 69 52 61 
-0.919766 -0.696611 4.68941 77 44 56 
2.05587 -0.732366 5.11061 69 56 74 
-0.176201 -0.572618 4.6927 60 27 26 
-0.171317 -0.572729 4.69299 117 90 81 
-0.181112 -0.571265 4.69225 65 25 30 
-0.185985 -0.563889 4.69158 150 134 113 
-1.34854 -0.571798 4.93279 73 50 68 
-0.129988 -0.540706 4.70232 75 53 47 
-0.279351 -0.541485 4.73931 89 69 55 
-2.08792 -0.548222 4.88638 120 97 117 
1.2991 -0.553375 5.07074 151 128 147 
-2.08662 -0.530689 4.88318 118 94 116 
1.68494 -0.550194 5.09342 132 125 143 
-0.152021 -0.48593 4.70081 198 183 157 
-2.12002 -0.47953 4.86046 99 76 98 
-0.243575 -0.465671 4.71612 143 127 115 
-0.286193 -0.438369 4.6886 148 120 108 
-0.537774 -0.431499 4.66389 72 33 42 
-0.288833 -0.433438 4.69183 145 120 108 
-0.472091 -0.428842 4.66415 71 33 45 
-2.44661 -0.432042 4.85409 63 55 77 
-2.46313 -0.423521 4.85178 78 76 100 
-0.308687 -0.397851 4.69548 159 141 127 
-0.312773 -0.382372 4.68315 156 133 120 
-0.217204 -0.375273 4.62537 207 197 171 
1.41736 -0.40306 5.07733 76 53 63 
-0.313018 -0.363457 4.68664 171 153 139 
-0.0962566 -0.363376 4.73068 188 176 152 
0.558837 -0.373451 4.8462 83 40 51 
-0.209411 -0.332982 4.61305 211 198 181 
-2.20431 -0.349415 4.86698 48 41 65 
-0.0886313 -0.335827 4.71818 210 196 169 
-0.0861522 -0.329788 4.71795 209 196 167 
-0.197367 -0.315378 4.61298 211 200 178 
-0.0763245 -0.32381 4.71789 151 135 119 
-0.0884096 -0.315606 4.7059 198 183 160 
-0.0789556 -0.316022 4.72875 206 196 170 
0.548561 -0.319048 4.84478 141 95 108 
-1.78715 -0.291721 4.88585 74 54 75 
-0.178177 -0.272565 4.61415 198 187 167 
0.459395 -0.286261 4.83761 94 47 56 
0.558234 -0.286168 4.84101 103 53 61 
-0.970808 -0.280016 4.77045 93 46 55 
-0.891762 -0.279855 4.77374 91 44 53 
-0.835506 -0.280779 4.7796 89 47 58 
-0.168485 -0.265909 4.61219 178 166 146 
-0.156815 -0.255979 4.62309 166 148 123 
-0.480738 -0.249726 4.67648 91 44 56 
0.142896 -0.249698 4.72239 82 39 49 
0.198943 -0.24946 4.70759 102 50 62 
-0.135134 -0.243125 4.62342 177 161 136 
-0.0972368 -0.241671 4.65743 166 150 127 
2.05249 -0.223554 5.08204 128 112 131 
-0.108694 -0.180925 4.73233 112 90 67 
-2.03166 -0.184489 4.85457 61 45 57 
-0.530607 -0.167683 4.66398 75 34 42 
-0.477984 -0.167267 4.67303 78 30 42 
0.201671 -0.166952 4.71439 82 33 42 
1.80647 -0.165436 5.0688 74 56 74 
0.737657 -0.129987 4.84158 69 36 47 
0.532879 -0.110225 4.75029 119 72 86 
-0.855118 -0.104247 4.69511 122 75 85 
0.257782 -0.0976727 4.70601 73 30 40 
-0.0532101 -0.0941136 4.629 149 136 143 
0.445516 -0.0899203 4.8243 85 36 50 
0.213199 -0.0850655 4.69768 65 26 35 
-0.146455 -0.0792826 4.52464 193 189 177 
-0.142223 -0.0731429 4.54019 114 102 110 
-0.16511 -0.0680229 4.51812 177 172 168 
0.696649 -0.0696501 4.83754 86 36 45 
-0.142212 -0.0638034 4.53974 181 181 171 
0.373189 -0.0670394 4.83315 75 32 41 
0.682968 -0.0477829 4.84796 64 28 35 
-0.145571 -0.0412833 4.49697 162 153 156 
-0.12259 -0.0371068 4.5148 151 143 140 
-0.154585 -0.0351372 4.48612 184 179 175 
-0.108714 -0.0360832 4.52561 198 194 182 
-0.147897 -0.0262286 4.49623 90 73 63 
-0.134756 -0.0253032 4.52766 117 103 90 
1.64211 -0.0183621 5.05944 96 72 90 
-0.143513 -0.00662877 4.5057 70 62 77 
1.53845 -0.00446379 5.05717 121 114 132 
-0.129414 -0.00206526 4.50599 128 118 127 
0.889252 -0.00303669 4.84163 80 31 35 
1.79768 -0.00230091 5.06632 84 61 83 
-1.2078 -2.9705e-05 4.7328 74 28 33 
-0.197466 0.000576015 4.50279 124 114 112 
-0.228173 0.003116 4.55284 53 40 33 
1.75916 0.00524896 5.06197 96 69 86 
1.9223 0.00587521 5.06029 109 88 107 
-0.237085 0.00780087 4.54149 107 88 74 
2.06259 0.0134878 5.08717 149 139 163 
-0.174371 0.0282985 4.51304 127 111 85 
0.0215599 0.0317323 4.61154 171 157 144 
0.031162 0.0465227 4.60877 194 185 178 
0.0143336 0.0507764 4.61068 163 150 141 
0.139558 0.0513253 4.69524 113 60 70 
0.200165 0.0509055 4.68008 108 55 65 
0.248148 0.0523026 4.71013 86 39 47 
-0.468545 0.0534759 4.67534 86 36 43 
0.492933 0.0552448 4.8204 108 64 69 
-0.537924 0.0559805 4.6634 85 37 51 
1.53919 0.066337 5.05092 73 51 71 
1.8583 0.0732618 5.0514 132 117 136 
0.048339 0.0725827 4.64178 105 89 90 
1.49428 0.110334 5.04164 104 86 110 
1.51957 0.110426 5.02957 78 63 87 
2.10369 0.110821 5.07739 59 41 64 
0.72746 0.125426 4.84106 86 39 47 
0.80608 0.126976 4.85813 85 40 47 
0.202879 0.132231 4.68678 93 40 50 
0.151636 0.133673 4.69024 89 36 44 
-0.528004 0.13563 4.66154 82 29 41 
-0.474275 0.135443 4.65949 80 31 43 
1.05994 0.1382 4.7461 53 29 39 
-1.94438 0.166144 4.83845 59 50 69 
-2.2554 0.187543 4.81783 49 43 65 
-2.24741 0.200543 4.81682 35 26 50 
-2.28379 0.201958 4.8194 33 38 65 
-2.17504 0.203341 4.82356 108 131 191 
0.980377 0.208763 4.73268 144 99 118 
-2.27321 0.217554 4.81823 27 40 72 
-2.14058 0.222708 4.81966 12 21 55 
-2.15967 0.228664 4.83422 155 182 245 
-2.15791 0.242271 4.81906 33 50 121 
1.43803 0.269647 5.02891 143 135 155 
2.01774 0.275428 5.03473 114 101 120 
-1.99661 0.266777 4.83637 92 78 91 
-1.94509 0.271609 4.85275 59 48 64 
-1.97033 0.281666 4.84002 74 53 72 
-2.20328 0.284839 4.8137 77 97 158 
-2.21285 0.286492 4.80177 36 23 80 
-2.20993 0.292775 4.81171 157 168 230 
0.913488 0.288392 4.65611 117 58 78 
-2.16062 0.329813 4.8194 19 36 107 
-2.26582 0.331113 4.8025 107 102 140 
-2.1453 0.337239 4.81321 92 107 155 
-2.27342 0.33892 4.80262 51 41 70 
-2.26151 0.342414 4.81459 146 146 209 
-2.1445 0.345364 4.81698 32 37 83 
-0.689049 0.326565 4.55185 70 39 52 
-0.457909 0.325925 4.54478 83 39 51 
-0.166453 0.340657 4.48813 86 72 104 
-2.23528 0.369628 4.81221 147 145 202 
-2.24563 0.372269 4.81285 23 14 37 
1.65854 0.391084 5.0132 84 124 213 
-2.17314 0.378144 4.81914 16 23 42 
1.10677 0.35818 4.56141 99 48 64 
-0.191702 0.353488 4.47613 125 110 146 
0.722536 0.359345 4.54032 104 52 70 
1.17306 0.361338 4.56925 70 34 46 
-2.25577 0.385305 4.81296 25 31 59 
-1.02248 0.356532 4.45208 104 57 67 
-0.189793 0.358918 4.48622 133 130 167 
-1.45967 0.356056 4.41806 79 52 56 
-1.1629 0.357331 4.43828 84 47 57 
0.949528 0.376042 4.54937 77 41 48 
1.0202 0.375995 4.54689 108 56 69 
-1.46605 0.366361 4.41659 110 74 81 
0.565138 0.377288 4.53221 72 37 47 
-0.189761 0.375001 4.48549 89 47 57 
-1.24473 0.373377 4.43264 107 64 78 
-0.870782 0.374592 4.46073 99 50 65 
-0.566031 0.375484 4.46219 94 45 59 
1.01598 0.384268 4.55989 131 84 94 
-1.47807 0.373727 4.41799 59 36 44 
-1.30977 0.374164 4.41798 55 27 29 
-0.940419 0.376715 4.44861 64 24 35 
0.956035 0.385367 4.54644 80 53 63 
-0.180832 0.38396 4.49562 125 77 89 
0.197559 0.383885 4.51 101 68 79 
1.00687 0.39067 4.55101 105 51 64 
-1.24874 0.382106 4.43049 104 72 82 
-0.931807 0.38281 4.44078 109 65 74 
0.247273 0.390347 4.51559 110 63 79 
0.623091 0.391182 4.54082 111 59 72 
0.967461 0.393561 4.55556 76 36 47 
1.48938 0.433692 5.0339 61 45 57 
0.108234 0.392295 4.51545 95 60 74 
0.481663 0.39304 4.52573 103 57 71 
0.719955 0.393645 4.53897 72 39 55 
0.865004 0.394283 4.54188 97 55 65 
1.11105 0.396099 4.5692 69 37 52 
-1.25886 0.388318 4.42546 87 51 65 
-0.92308 0.389823 4.44342 77 30 41 
-0.411216 0.393037 4.47526 94 52 69 
-0.0330249 0.395044 4.49841 84 46 61 
0.719323 0.401748 4.54995 129 93 110 
-1.39293 0.390838 4.40395 71 46 59 
-1.16213 0.393153 4.42645 74 40 48 
1.67694 0.447091 5.02913 83 66 85 
-1.16876 0.400542 4.43412 108 77 88 
1.92637 0.475902 5.02935 103 73 85 
-2.15448 0.464005 4.82797 48 32 46 
0.884182 0.451658 4.55519 102 50 62 
0.12227 0.450352 4.51175 97 54 68 
-1.44735 0.446693 4.40854 59 31 32 
1.10997 0.466649 4.56478 83 42 55 
1.1401 0.466666 4.55189 108 54 65 
0.343565 0.464036 4.51118 86 43 53 
-0.273484 0.463543 4.47582 105 52 69 
-0.0353682 0.465415 4.49487 90 41 55 
-0.647624 0.46395 4.46258 109 55 72 
-0.413244 0.464815 4.47176 94 49 62 
-1.39703 0.461279 4.41675 81 36 50 
-1.16146 0.464982 4.43266 76 30 43 
-1.0185 0.464558 4.43485 88 44 62 
0.566713 0.481815 4.52589 96 58 75 
0.954861 0.485104 4.55215 95 58 72 
-1.82693 0.613416 4.82129 56 40 58 
1.5921 0.647329 5.00166 99 73 87 
-2.0724 0.716991 4.8244 49 40 49 
1.69217 0.883602 4.99647 130 109 123 
2.10999 0.924457 5.02272 92 95 110 
1.78341 0.927496 5.01107 114 113 140 
1.9479 0.934081 5.01707 108 102 118 
1.79109 1.04901 4.92436 86 67 89 
2.35647 1.06641 4.92961 104 124 186 
2.35355 1.07094 4.93971 154 180 238 
2.36172 1.06895 4.92983 164 182 242 
2.3436 1.07884 4.95134 56 47 110 
2.21255 1.07537 4.92424 59 95 157 
2.22572 1.07813 4.93635 117 156 214 
2.22619 1.07592 4.92597 137 162 226 
2.24104 1.0798 4.92482 67 50 131 
2.39328 1.0818 4.93128 21 31 48 
2.18731 1.08489 4.93104 74 55 68 
2.37454 1.08721 4.92971 82 77 154 
2.20063 1.09256 4.93209 27 28 60 
2.3795 1.09448 4.92936 135 147 209 
-0.401018 0.780034 3.44459 62 33 47 
2.28151 1.12792 4.91776 170 189 255 
2.29883 1.1406 4.933 73 58 137 
2.36337 1.18402 4.93341 154 175 240 
2.22521 1.19704 4.9295 18 26 58 
-1.24941 1.12315 4.26716 70 75 90 
0.434731 0.937752 3.47184 118 74 95 
-0.414829 1.08229 3.36782 131 132 155 
-0.0597634 1.08106 3.26854 135 160 226 
1.79437 -1.7028 5.15525 64 47 66 
0.872506 -1.68268 5.10379 96 73 91 
0.920931 -1.68358 5.10663 81 60 87 
1.00544 -1.68224 5.11381 136 114 141 
1.48274 -1.68703 5.12637 82 61 89 
1.78826 -1.69048 5.1377 64 47 69 
1.45234 -1.68231 5.13234 92 66 92 
0.929405 -1.61897 5.08308 99 75 95 
0.771737 -1.60892 5.09228 97 68 92 
2.01008 -1.62898 5.15392 139 116 129 
0.790124 -1.60486 5.08759 93 77 105 
2.01118 -1.60574 5.13205 128 107 120 
0.79237 -1.58549 5.10195 99 83 107 
0.810592 -1.56517 5.09611 77 53 74 
-1.20596 -1.51566 4.98064 101 69 84 
-2.00168 -1.47328 4.95163 82 62 83 
-1.05412 -1.48309 5.00009 89 71 88 
1.0477 -1.4999 5.10142 118 100 122 
0.960971 -1.49072 5.09867 77 63 87 
-1.24507 -1.45121 4.97509 76 55 67 
0.725581 -1.48236 5.08165 115 102 118 
1.24876 -1.49226 5.11405 120 103 120 
0.755161 -1.48003 5.08801 100 80 97 
1.80484 -1.48983 5.12979 53 38 63 
2.06598 -1.49694 5.15657 55 47 66 
1.79437 -1.48818 5.13661 134 112 137 
1.55914 -1.47165 5.12428 86 76 96 
1.79834 -1.47085 5.12951 80 60 90 
-2.40482 -1.39848 4.90796 56 43 61 
-0.92861 -1.41998 4.99807 108 92 109 
1.54491 -1.43885 5.13023 74 64 83 
1.76328 -1.43888 5.13025 94 66 83 
-0.919485 -1.38402 4.99859 54 47 62 
0.86395 -1.40849 5.09112 92 61 74 
0.959986 -1.40942 5.09346 101 78 91 
0.629595 -1.38625 5.07722 92 62 85 
-1.27276 -1.35145 4.98569 55 42 65 
2.09692 -1.3339 5.12157 98 75 101 
-1.21572 -1.29198 4.98157 90 62 79 
-1.79742 -1.27316 4.94336 125 115 128 
1.42091 -1.31578 5.11149 119 111 127 
-2.25139 -1.24936 4.90133 72 47 63 
-1.85061 -1.26251 4.95354 63 56 73 
1.77636 -1.30237 5.1124 120 112 135 
-1.70549 -1.25759 4.94626 98 73 92 
1.54209 -1.30178 5.1208 106 82 100 
0.919381 -1.2791 5.08051 97 84 113 
0.296104 -1.16234 4.63253 138 89 105 
1.6836 -1.28386 5.11246 124 110 134 
0.293132 -1.14923 4.63213 144 103 120 
0.142303 -1.13596 4.6292 88 41 56 
0.202416 -1.13205 4.61259 147 95 109 
-1.56924 -1.21074 4.95566 77 67 85 
0.287284 -1.12594 4.63143 142 92 111 
0.408027 -1.15583 4.75468 48 27 38 
0.18851 -1.11482 4.62557 70 38 49 
0.205816 -1.11499 4.62443 131 89 103 
1.02951 -1.22319 5.07472 121 102 118 
-0.513398 -1.09936 4.58512 106 65 72 
0.16531 -1.09279 4.62572 57 26 36 
1.3295 -1.15527 5.1044 91 66 86 
-0.490472 -1.03737 4.61157 80 42 55 
-2.3636 -1.09319 4.89801 124 115 136 
-1.66191 -1.07916 4.93584 64 55 72 
2.0694 -1.10835 5.12457 62 49 69 
1.69558 -1.10199 5.10982 76 57 83 
-2.32284 -1.04946 4.89617 52 34 58 
-2.00842 -1.05163 4.90672 83 63 76 
-1.52796 -1.05599 4.94217 49 30 48 
-2.36142 -1.03401 4.88085 79 67 90 
-0.372012 -0.994078 4.71949 62 29 37 
-1.49643 -1.02816 4.94984 76 58 74 
-0.277254 -0.96951 4.71574 77 41 49 
0.0991214 -0.943925 4.64694 102 64 74 
-1.42165 -0.988018 4.93773 93 62 75 
-0.90517 -0.931152 4.6803 64 37 47 
-1.51213 -0.948869 4.93053 69 55 68 
0.825732 -0.947319 5.05247 106 74 89 
2.0204 -0.959588 5.13033 88 66 89 
-1.59274 -0.903921 4.93122 104 80 94 
-2.34026 -0.885736 4.86147 102 80 101 
-1.62041 -0.892892 4.92148 69 45 56 
1.14216 -0.917499 5.08118 136 123 144 
-1.87902 -0.88158 4.91308 71 59 84 
-1.74577 -0.879026 4.9273 134 123 142 
2.33303 -0.915056 5.13268 88 70 93 
1.08503 -0.896353 5.06692 111 105 126 
1.37686 -0.900023 5.10218 71 51 78 
1.00749 -0.88886 5.05983 130 107 126 
1.35808 -0.884994 5.09163 98 91 110 
-1.37909 -0.85582 4.93992 66 54 73 
1.03888 -0.878871 5.07394 88 74 98 
-0.385994 -0.809763 4.70861 63 27 36 
-0.265113 -0.794817 4.70819 56 20 31 
-0.126833 -0.796291 4.71772 113 71 79 
-0.067982 -0.775107 4.73219 113 72 80 
1.35779 -0.800787 5.06677 93 63 86 
-1.13602 -0.745425 4.94497 79 64 76 
-0.35938 -0.706183 4.7071 82 37 50 
1.3656 -0.745828 5.09587 104 101 118 
0.96673 -0.725696 5.04553 115 77 91 
-0.752705 -0.60931 4.7902 56 29 39 
-0.176129 -0.57282 4.69045 60 27 26 
-0.170271 -0.572952 4.6908 141 119 106 
-0.205393 -0.566331 4.68828 160 143 124 
-0.184904 -0.563905 4.68948 148 132 114 
-1.28396 -0.580032 4.93006 123 95 113 
-1.35208 -0.572323 4.94205 72 49 67 
-0.280747 -0.538618 4.72087 82 62 50 
1.16122 -0.577174 5.06712 121 109 129 
-1.78329 -0.557366 4.91089 95 83 103 
-1.33345 -0.556862 4.91908 80 67 87 
1.68289 -0.577084 5.09044 74 53 64 
-1.76262 -0.52325 4.90459 61 55 81 
-0.270943 -0.45157 4.70404 151 126 115 
-0.537538 -0.43005 4.6661 61 27 34 
-0.471497 -0.430589 4.67769 68 33 43 
-0.167149 -0.432293 4.68393 218 210 188 
0.138287 -0.433246 4.69836 62 25 33 
0.205774 -0.432287 4.69424 77 35 47 
-0.178622 -0.41945 4.67734 222 215 194 
-2.44295 -0.428553 4.84693 58 53 73 
-0.195554 -0.403339 4.66206 227 216 194 
0.0914701 -0.393033 4.71169 57 24 33 
-1.13011 -0.387591 4.67593 88 50 67 
-0.465542 -0.381834 4.67624 58 26 36 
-2.09606 -0.392125 4.87995 58 54 79 
1.47095 -0.406876 5.07391 95 76 90 
-0.103809 -0.376751 4.73794 194 182 158 
-0.118452 -0.373068 4.7304 198 187 157 
1.41129 -0.401012 5.06502 68 45 53 
-0.832803 -0.367177 4.7843 60 28 34 
-0.118176 -0.358777 4.71835 144 123 100 
-0.313635 -0.34676 4.68135 146 121 107 
-0.0857559 -0.332044 4.72259 210 196 165 
-0.196885 -0.316815 4.62386 211 200 178 
0.548777 -0.318634 4.84222 141 95 108 
-0.210685 -0.292947 4.60885 178 160 140 
-0.213536 -0.278679 4.60796 150 134 109 
-0.185255 -0.275592 4.62255 157 138 123 
0.640968 -0.286825 4.85159 82 44 50 
-0.969426 -0.278659 4.76365 79 35 46 
-0.144836 -0.261186 4.6257 209 197 175 
-0.167904 -0.258683 4.62267 190 176 148 
-0.999788 -0.261136 4.76613 102 51 57 
-0.187577 -0.249174 4.60816 117 87 63 
0.173624 -0.254682 4.70048 77 35 39 
-0.474948 -0.250305 4.68191 67 33 40 
-0.436154 -0.250285 4.67454 67 28 36 
-0.133582 -0.245497 4.63664 179 165 139 
0.106308 -0.249082 4.71717 67 30 37 
0.138354 -0.248606 4.70212 91 44 54 
0.244682 -0.248478 4.70849 61 23 34 
0.262246 -0.236836 4.7063 62 29 38 
2.05973 -0.234345 5.09205 131 115 134 
2.04759 -0.218011 5.09358 81 60 79 
1.54345 -0.201149 5.05115 96 73 88 
1.46059 -0.1976 5.05994 84 64 89 
-0.530676 -0.168113 4.68186 86 36 45 
-0.477465 -0.165519 4.67749 67 25 37 
0.150389 -0.16594 4.71067 75 27 33 
0.2004 -0.167686 4.70769 82 33 42 
-0.162284 -0.154739 4.7106 92 64 43 
1.81008 -0.166803 5.07152 71 54 70 
1.8226 -0.166621 5.06219 55 38 56 
1.08339 -0.141697 4.75339 55 26 37 
0.456886 -0.137844 4.83266 84 37 47 
0.740734 -0.129681 4.84849 73 36 48 
0.518817 -0.108156 4.76228 150 103 119 
0.536369 -0.109703 4.75927 134 86 98 
-0.855585 -0.104471 4.69497 125 77 86 
0.0910954 -0.0980803 4.69617 82 36 46 
-0.54311 -0.0888608 4.66245 92 46 58 
0.547917 -0.0918888 4.75604 147 100 111 
0.214871 -0.084419 4.70208 66 25 35 
-0.162012 -0.0694851 4.53704 188 180 178 
0.368647 -0.0664285 4.8265 63 21 33 
-0.706044 -0.0621788 4.77707 64 25 31 
-0.695393 -0.0620967 4.76558 59 22 26 
-0.133996 -0.0571986 4.55027 113 107 117 
-1.47621 0.115205 -11.8478 75 33 36 
1.37372 -0.0239682 5.05504 99 72 91 
1.5921 -0.0210645 5.06498 93 68 89 
1.55329 -0.0120401 5.05222 70 53 71 
-0.166669 -0.00511876 4.50881 20 16 33 
2.08276 -0.00484237 5.04728 117 103 122 
-0.129647 -0.00252522 4.49778 128 118 127 
1.80134 -0.00299067 5.07363 80 56 78 
-1.20878 0.000773229 4.73081 79 34 39 
-1.62791 0.00387656 4.85885 110 87 97 
-0.227647 0.00357036 4.54238 53 40 33 
1.96139 0.00786786 5.06033 111 80 96 
-0.236137 0.00920264 4.54152 116 99 81 
-0.099487 0.016944 4.53507 135 126 119 
0.014295 0.0494356 4.59777 163 150 141 
0.205724 0.0527736 4.69545 59 24 31 
0.247428 0.0527417 4.70569 63 23 34 
0.495905 0.0548524 4.82975 128 79 85 
-0.535198 0.0550289 4.64401 85 37 51 
-0.470747 0.0564813 4.6681 64 24 33 
-0.226578 0.0572055 4.578 34 27 29 
0.504761 0.0638343 4.82768 78 33 43 
-0.829693 0.0722245 4.76529 65 29 35 
-0.209862 0.0748066 4.58848 95 69 52 
0.161675 0.076284 4.69722 63 36 47 
1.51322 0.0890167 5.04515 85 63 84 
0.452996 0.111358 4.82376 87 36 47 
0.998873 0.110476 4.74781 93 46 66 
1.35532 0.135497 5.03367 96 75 100 
-1.1102 0.13375 4.7397 62 20 28 
-1.04618 0.133203 4.74552 63 27 37 
0.15275 0.133067 4.69464 95 39 50 
0.20611 0.13324 4.70469 89 36 46 
-0.474822 0.134675 4.65045 99 49 60 
1.06353 0.137303 4.75772 62 33 42 
-0.527736 0.136394 4.65494 70 25 37 
0.179109 0.150408 4.69206 135 79 88 
-2.23872 0.201593 4.82413 110 102 148 
-2.13932 0.211825 4.84529 48 38 51 
-2.27587 0.217411 4.82597 20 31 64 
1.83556 0.230878 5.03666 146 123 131 
-2.14473 0.223749 4.83008 12 21 55 
-1.68339 0.224739 4.86054 37 26 35 
-2.16072 0.228521 4.83212 164 183 250 
-2.26082 0.242872 4.81973 57 61 126 
-2.15896 0.242896 4.82144 33 50 121 
1.66175 0.261412 5.03564 59 44 63 
-2.09275 0.26958 4.80799 65 57 81 
-1.94181 0.271669 4.84458 59 48 64 
-1.97441 0.281506 4.85007 74 53 72 
-2.21724 0.2851 4.81019 33 23 70 
-1.73733 0.29159 4.85803 48 41 56 
1.85937 0.322013 5.04132 104 74 84 
-2.13448 0.30917 4.82749 64 46 64 
1.89986 0.334007 5.03984 98 67 78 
-2.25786 0.327299 4.80679 23 44 101 
-2.1589 0.326313 4.81453 18 29 96 
0.372177 0.32247 4.60882 119 65 78 
-2.1538 0.340316 4.82319 111 134 193 
-2.27649 0.341377 4.8081 36 31 57 
-0.186292 0.348971 4.50332 119 136 180 
1.66382 0.391839 5.02281 83 121 210 
0.72141 0.357591 4.53622 121 68 81 
1.55924 0.398654 5.03046 45 89 188 
-1.45918 0.355865 4.42083 79 52 56 
-1.39685 0.35563 4.4163 74 43 48 
-1.15951 0.357193 4.42876 83 45 53 
-1.02456 0.357556 4.44511 82 40 52 
0.191833 0.375344 4.50866 106 60 72 
0.567446 0.376782 4.53176 94 51 64 
0.63988 0.3764 4.54223 97 47 61 
-0.495663 0.374498 4.47005 108 62 72 
-0.190818 0.374521 4.47722 87 47 56 
-0.115504 0.375988 4.49226 83 43 53 
-0.868625 0.375349 4.45913 81 38 55 
-0.565679 0.37578 4.47065 84 36 50 
0.575696 0.382299 4.52968 132 88 104 
0.961452 0.384072 4.55637 112 78 88 
-1.47899 0.374556 4.42219 59 36 44 
0.200283 0.382297 4.50774 127 89 104 
-0.1801 0.383916 4.48962 131 85 98 
-1.25013 0.380804 4.42566 124 82 92 
-0.931421 0.38156 4.43906 109 65 74 
0.966644 0.392493 4.55394 76 36 47 
1.10442 0.393164 4.55759 65 35 45 
1.48994 0.433676 5.03046 61 45 57 
2.11013 0.43475 5.04451 137 110 124 
0.205887 0.390638 4.50684 72 35 49 
0.344959 0.391908 4.51703 77 44 57 
0.72315 0.39413 4.54713 75 42 58 
-0.923367 0.389584 4.45361 112 59 69 
-0.0340159 0.393972 4.50466 88 49 67 
-1.16478 0.392909 4.4384 74 40 48 
0.720338 0.402706 4.54736 137 98 113 
1.67506 0.448173 5.04718 79 56 76 
1.6757 0.446924 5.0301 80 60 78 
-2.10416 0.433576 4.82003 87 61 75 
0.710033 0.408807 4.53615 106 65 83 
-1.16721 0.400845 4.43712 117 83 94 
1.92618 0.474535 5.02611 114 87 100 
-2.15488 0.463755 4.82548 47 32 46 
0.121272 0.44805 4.5098 124 78 91 
0.494746 0.448667 4.51584 111 58 74 
0.883342 0.450737 4.55086 102 50 62 
0.821906 0.45966 4.54211 133 85 97 
0.829925 0.465116 4.5393 92 45 52 
0.109666 0.463473 4.4971 98 50 66 
0.717689 0.466623 4.53066 95 49 60 
-0.0340685 0.46741 4.51109 90 41 55 
-1.39581 0.460191 4.41287 95 47 58 
-1.16289 0.464818 4.43097 74 33 44 
-1.12814 0.464105 4.42531 83 50 56 
0.566702 0.481115 4.52589 96 59 76 
0.95488 0.484173 4.55224 99 61 74 
0.483332 0.502156 4.51493 94 51 61 
0.874675 0.505086 4.55026 89 46 62 
0.11524 0.502324 4.49484 99 52 63 
-1.02083 0.501306 4.4408 96 47 62 
-1.82613 0.612919 4.81922 56 40 58 
1.71299 0.655669 5.01931 140 124 143 
-1.95333 0.711096 4.82754 81 61 70 
1.13222 0.802501 4.53176 70 37 48 
2.21819 0.912915 5.02436 73 57 72 
1.70841 0.912551 5.00587 98 94 115 
2.10795 0.923325 5.01666 95 101 115 
1.85195 0.927977 5.02104 98 95 112 
1.93339 0.938465 5.0284 117 103 117 
1.94848 0.935468 5.0187 114 105 121 
1.53981 0.964558 4.99793 106 92 107 
1.5361 0.972894 4.99607 62 48 65 
0.150203 0.742197 3.4792 95 46 60 
-0.36519 0.738003 3.44893 91 46 64 
2.3913 1.05947 4.94628 59 43 62 
-2.13748 1.02052 4.75986 81 71 87 
0.292241 0.747351 3.48399 76 51 65 
0.349599 0.748381 3.49019 91 42 55 
2.36829 1.06147 4.93071 37 27 51 
2.20899 1.06738 4.92661 34 31 45 
2.36421 1.06872 4.93508 135 151 214 
2.23421 1.0796 4.94147 137 159 221 
2.33663 1.07943 4.94212 27 25 89 
2.39827 1.08168 4.94166 22 32 47 
2.19132 1.08412 4.93551 61 41 55 
2.38647 1.09509 4.94277 95 105 173 
0.349431 0.785091 3.48852 83 35 48 
-0.226812 0.777903 3.44742 83 38 52 
-0.401381 0.77983 3.44451 62 33 47 
2.30366 1.13083 4.92456 152 183 247 
2.2994 1.14122 4.92863 34 25 104 
2.19832 1.15929 4.93049 52 33 50 
2.26286 1.18916 4.93647 55 33 115 
2.38582 1.19814 4.94783 36 20 68 
2.22644 1.19638 4.93122 18 26 58 
2.23679 1.19387 4.91998 136 157 206 
-0.345453 0.853102 3.44629 88 40 55 
-0.614432 0.851478 3.42953 89 47 65 
0.371287 0.866208 3.48871 75 39 52 
-1.92295 1.09864 3.9516 100 106 95 
-0.0717362 1.08223 3.26889 169 192 243 
-0.0594005 1.08141 3.26856 148 171 230 
0.841712 -1.68622 5.09913 101 83 108 
1.46761 -1.69768 5.13177 125 111 136 
1.79861 -1.69243 5.13055 54 47 64 
1.78941 -1.69361 5.14853 69 51 75 
1.44473 -1.67734 5.11904 95 69 96 
1.58595 -1.6185 5.12812 85 66 93 
1.31534 -1.58323 5.10915 83 64 92 
0.865965 -1.55629 5.08421 108 78 97 
0.935234 -1.55322 5.08712 100 71 92 
-1.20546 -1.51739 4.9813 97 66 81 
1.53308 -1.55956 5.13146 88 62 84 
-1.25732 -1.51415 4.99391 135 111 121 
0.789308 -1.521 5.08236 92 63 81 
-1.29366 -1.47878 4.9895 65 45 54 
-1.26698 -1.47416 4.98791 63 43 52 
1.33281 -1.50881 5.11726 104 80 102 
-0.945961 -1.46841 4.99388 120 103 125 
1.06017 -1.49591 5.09995 92 76 94 
1.69285 -1.49999 5.12506 50 44 58 
1.97512 -1.5067 5.14841 52 39 63 
-1.24587 -1.45226 4.97858 77 58 69 
-2.2918 -1.40422 4.9121 125 102 114 
-0.938629 -1.42719 4.9948 72 58 79 
0.759257 -1.45442 5.08574 127 109 131 
-2.43236 -1.40162 4.92766 55 45 63 
-0.928014 -1.42114 4.9979 108 90 109 
-0.938531 -1.41607 4.99406 60 50 67 
0.943934 -1.4254 5.09285 94 68 78 
0.816923 -1.40903 5.08803 108 78 91 
0.623851 -1.38592 5.07193 91 69 89 
-1.27147 -1.34742 4.97581 60 49 74 
1.76675 -1.36574 5.11616 79 60 86 
2.10039 -1.33689 5.13311 105 76 104 
2.27799 -1.32832 5.11634 145 129 148 
-1.79728 -1.27261 4.94128 125 115 128 
0.873772 -1.30105 5.08527 83 65 81 
0.917216 -1.29696 5.07203 97 75 93 
-1.27159 -1.26911 4.97603 82 72 103 
2.07367 -1.29869 5.12437 84 71 89 
0.913335 -1.27389 5.07164 115 105 131 
-0.381544 -1.15442 4.60816 89 55 70 
0.0892618 -1.13665 4.61563 54 26 38 
0.172369 -1.13108 4.61183 136 86 95 
0.200664 -1.13523 4.62584 150 98 112 
1.67774 -1.25524 5.11405 119 106 126 
0.113531 -1.125 4.61429 106 58 71 
1.55869 -1.24652 5.11426 79 53 75 
-0.395119 -1.11933 4.60456 135 81 97 
0.407469 -1.15954 4.76894 51 30 42 
-0.512298 -1.10167 4.60043 113 78 86 
-1.66865 -1.16939 4.94493 128 112 135 
-2.35055 -1.12891 4.8951 80 68 88 
1.32322 -1.14753 5.09498 104 77 90 
1.13092 -1.14213 5.09081 111 79 96 
-2.36638 -1.09675 4.89722 130 112 131 
-2.2197 -1.09506 4.89016 112 84 100 
0.16633 -1.03408 4.63824 81 40 52 
1.34345 -1.13418 5.0846 85 66 79 
-1.66458 -1.08049 4.94348 62 52 69 
1.30364 -1.10108 5.09325 70 43 56 
1.6967 -1.10564 5.11323 80 63 83 
2.07114 -1.11093 5.13687 68 51 73 
-1.6024 -1.05803 4.94665 38 30 45 
-0.295209 -0.971263 4.71929 83 42 50 
-0.0613764 -0.948108 4.73322 80 42 53 
-1.50924 -0.943753 4.92057 66 54 68 
-0.192643 -0.894547 4.72429 75 34 49 
1.44701 -0.963256 5.08605 99 73 92 
-0.128847 -0.891373 4.72783 85 38 47 
1.54069 -0.923157 5.08 100 70 81 
-1.6244 -0.891258 4.92254 67 46 55 
-1.51085 -0.894919 4.93789 60 50 71 
1.14266 -0.921642 5.09193 136 122 147 
0.830023 -0.902663 5.05164 122 102 118 
0.876445 -0.904514 5.07876 93 67 86 
-0.387212 -0.810877 4.71675 74 35 45 
-0.279717 -0.793916 4.69608 86 45 55 
-0.266601 -0.797128 4.7135 57 25 32 
-0.0577965 -0.798115 4.72555 53 23 29 
0.038051 -0.798335 4.72602 78 43 49 
-1.40089 -0.828744 4.94245 120 106 129 
-0.319241 -0.763727 4.70658 80 39 49 
-0.831721 -0.759806 4.76592 65 37 52 
-0.322714 -0.74962 4.70547 56 23 33 
-0.855396 -0.751169 4.75826 76 35 41 
1.35947 -0.799526 5.07304 96 67 87 
-1.83243 -0.771845 4.9149 73 60 77 
-0.83157 -0.738766 4.76479 71 43 53 
-1.13304 -0.746242 4.94015 71 57 71 
-1.69274 -0.742007 4.92696 60 43 58 
-0.922869 -0.696926 4.68339 95 61 70 
1.03266 -0.753494 5.05903 84 70 88 
-2.46568 -0.710432 4.86731 58 46 69 
0.0131652 -0.683796 4.73648 111 67 74 
-0.213545 -0.656073 4.79294 93 61 73 
0.95667 -0.679091 5.03913 146 125 148 
-0.812822 -0.58294 4.7805 64 31 41 
-0.170353 -0.572129 4.69346 141 119 106 
-1.92664 -0.565229 4.8723 60 43 66 
-0.286513 -0.550696 4.74815 43 18 22 
-0.12849 -0.541749 4.71016 66 42 39 
-1.35947 -0.564505 4.92606 63 46 65 
-0.281003 -0.536542 4.71537 80 60 48 
-1.3341 -0.556978 4.92811 72 56 75 
-1.42223 -0.544536 4.9127 75 61 87 
-2.08284 -0.528908 4.87804 120 96 118 
1.69021 -0.53665 5.0933 74 53 74 
-0.245584 -0.465734 4.71506 139 108 105 
-0.272805 -0.449607 4.69576 151 131 118 
-0.162945 -0.448996 4.68126 195 180 159 
-0.286801 -0.435382 4.69374 153 127 115 
-0.540056 -0.428658 4.65759 68 37 43 
0.136682 -0.433142 4.70385 67 31 39 
-0.300772 -0.417695 4.69148 135 101 93 
-2.45556 -0.421468 4.83928 65 61 86 
-0.142974 -0.405589 4.71877 140 123 102 
-0.307323 -0.400315 4.6835 156 136 124 
-2.45438 -0.411968 4.85854 109 106 135 
-0.5882 -0.39222 4.67848 51 24 31 
-0.160193 -0.393571 4.70382 137 110 81 
1.47743 -0.418028 5.07215 74 48 58 
-0.465748 -0.382209 4.68427 62 25 37 
-0.313602 -0.377931 4.67221 144 119 107 
-0.157176 -0.373519 4.71916 146 127 96 
2.04935 -0.374559 5.1108 68 47 62 
-0.311027 -0.332485 4.68629 152 125 112 
-0.198844 -0.316844 4.61598 210 199 177 
0.509952 -0.306292 4.82487 90 44 52 
-0.195328 -0.279264 4.61434 179 163 140 
-0.0857761 -0.280888 4.69032 192 182 158 
-0.971607 -0.279499 4.78317 74 31 40 
-0.894612 -0.278126 4.77515 69 34 39 
-0.833975 -0.278861 4.77713 78 39 51 
-0.793634 -0.278965 4.77193 63 29 36 
1.45746 -0.287069 5.04255 116 92 116 
-0.171081 -0.255641 4.61457 179 160 128 
-0.157322 -0.255674 4.61785 154 136 112 
0.168637 -0.257134 4.70907 77 32 39 
0.670899 -0.264566 4.86155 65 28 36 
-0.188366 -0.248582 4.61325 118 87 66 
-0.577166 -0.248022 4.67402 66 31 38 
-0.535938 -0.248842 4.68198 55 25 35 
-0.475569 -0.249124 4.67636 54 22 30 
-0.123425 -0.247597 4.64764 96 68 57 
-1.0738 -0.248426 4.7424 78 31 38 
0.139872 -0.245571 4.69374 75 33 43 
0.203891 -0.246806 4.70619 61 25 35 
-0.589635 -0.238299 4.66134 86 44 56 
2.05623 -0.224778 5.08969 128 112 131 
-2.03569 -0.185866 4.86082 70 54 65 
-0.11149 -0.181255 4.7332 107 82 60 
-0.121924 -0.172974 4.7242 128 106 82 
-0.478656 -0.164727 4.6719 71 32 44 
-0.138848 -0.165452 4.69609 146 125 98 
0.147271 -0.165731 4.70543 72 28 35 
0.200163 -0.164286 4.70196 70 27 36 
0.482408 -0.160914 4.80351 75 41 55 
0.210672 -0.143299 4.70006 78 48 58 
-2.02741 -0.145959 4.8584 67 58 82 
1.08316 -0.142554 4.76289 62 31 40 
0.73932 -0.131666 4.85515 67 35 49 
-0.864718 -0.119899 4.70952 93 46 54 
-2.02958 -0.0992198 4.86348 51 48 69 
-0.86219 -0.0914583 4.69567 74 34 45 
-0.161181 -0.068525 4.52958 205 200 194 
0.697489 -0.0692041 4.84337 73 27 37 
-0.707136 -0.0614607 4.76828 63 29 38 
-0.696766 -0.0615572 4.77088 47 20 25 
-0.133967 -0.0569866 4.53006 117 112 119 
0.378924 -0.057994 4.81884 101 58 68 
-0.155383 -0.0504502 4.55911 202 201 197 
-0.100051 -0.0443657 4.53552 136 125 127 
0.38558 -0.0471678 4.81155 57 23 30 
-1.70493 -0.0265367 4.86511 52 36 47 
1.58379 -0.0192453 5.04657 92 68 92 
1.61848 -0.0194504 5.07209 76 56 72 
1.64057 -0.0195433 5.05795 102 80 98 
-0.183638 -0.00642266 4.49566 77 67 75 
-1.69891 -0.00388496 4.86875 100 71 82 
1.53261 -0.00359718 5.05288 129 126 143 
-0.103074 0.00430965 4.51798 47 33 30 
-0.122678 0.00908102 4.49009 188 185 166 
-0.10329 0.0166415 4.52745 144 137 131 
-2.38364 0.0247674 4.84756 68 59 80 
0.0160087 0.041132 4.593 106 81 77 
-0.512145 0.044824 4.65653 102 47 54 
0.0333574 0.0443276 4.60554 195 190 180 
-0.342652 0.0520987 4.63574 71 46 42 
0.0160994 0.0508312 4.61859 172 161 151 
0.104581 0.0531641 4.69587 64 21 31 
0.20314 0.0527147 4.69015 74 28 38 
0.491735 0.055104 4.82448 94 54 60 
-0.532674 0.0551255 4.65244 77 33 46 
-0.302336 0.0553056 4.6053 58 39 33 
0.043996 0.0594939 4.63328 46 22 20 
-0.0355984 0.0606365 4.57181 130 112 128 
0.502383 0.0640614 4.82224 73 30 39 
1.53434 0.0674875 5.04606 87 60 80 
1.85594 0.0721461 5.04411 135 120 140 
-0.828091 0.0716013 4.76294 65 29 35 
0.157391 0.0703862 4.6923 59 32 41 
-2.3406 0.0751366 4.82634 75 64 88 
1.42869 0.105993 5.03453 79 55 66 
2.09847 0.110767 5.07142 64 44 65 
0.452169 0.111309 4.82782 87 36 47 
1.05986 0.111443 4.75463 66 41 51 
0.712356 0.115855 4.82092 112 66 76 
0.726412 0.127288 4.84217 67 26 32 
-1.04794 0.134592 4.75351 58 27 35 
1.0595 0.138358 4.75301 51 28 37 
0.978977 0.17411 4.74361 129 83 98 
-1.98054 0.184266 4.83253 95 87 101 
-2.17604 0.194904 4.83119 38 38 59 
-2.25023 0.200418 4.81909 26 24 46 
-2.17985 0.204622 4.83167 148 172 229 
-2.27239 0.215527 4.81994 20 31 64 
-2.14157 0.219479 4.82715 21 20 42 
-2.26997 0.227993 4.83787 156 164 230 
1.98134 0.246459 5.05449 105 75 88 
2.04686 0.271247 5.04748 131 121 132 
2.03005 0.275959 5.06232 115 100 120 
-1.99928 0.267461 4.84268 98 84 97 
-2.14438 0.30983 4.82519 54 50 86 
-0.562739 0.243625 3.70015 98 48 59 
-2.14831 0.337918 4.80957 115 133 190 
0.903688 0.325621 4.63178 75 40 47 
-2.1554 0.340736 4.80123 150 174 240 
-0.458767 0.325942 4.54302 83 39 51 
-2.14779 0.349354 4.82469 17 23 58 
-2.13628 0.353037 4.82323 35 22 38 
-2.2377 0.371374 4.82302 146 140 191 
-2.17158 0.370073 4.80503 140 155 207 
-0.189743 0.348122 4.47856 124 122 165 
1.65596 0.390051 5.01235 81 123 214 
-2.16922 0.377168 4.80784 23 30 49 
1.10482 0.358542 4.55687 100 50 67 
0.100346 0.357729 4.50797 92 54 66 
0.351827 0.360901 4.56193 80 41 56 
0.476752 0.357084 4.51133 91 49 60 
0.727151 0.360756 4.55079 81 38 58 
1.54959 0.397281 5.00944 53 83 178 
-0.785332 0.356766 4.45866 112 61 81 
-0.11576 0.358409 4.48081 133 146 191 
-1.46039 0.357092 4.42281 60 39 45 
-1.39854 0.356699 4.4164 55 30 35 
1.17476 0.367261 4.54925 96 70 79 
1.64826 0.403415 5.00042 46 41 81 
1.19071 0.377206 4.5711 83 42 51 
-1.46863 0.366215 4.41767 110 74 82 
0.259687 0.375069 4.51008 117 69 83 
0.636754 0.3768 4.54024 114 62 79 
0.951974 0.379438 4.56291 58 28 36 
1.02201 0.378862 4.55412 99 49 62 
-0.495644 0.375204 4.475 104 57 67 
-0.11612 0.376209 4.49479 83 43 53 
-1.31257 0.372684 4.41759 70 40 41 
-0.568035 0.377234 4.46253 80 36 52 
0.253775 0.38312 4.52556 139 92 111 
0.624655 0.382444 4.52674 142 95 111 
-1.47866 0.376648 4.42785 37 28 36 
-0.932888 0.382676 4.44316 109 65 74 
0.967733 0.392718 4.55638 76 36 47 
1.00688 0.391763 4.54761 93 46 57 
0.107072 0.39113 4.50596 95 60 74 
0.20565 0.392133 4.51429 72 35 49 
0.341388 0.392551 4.51484 76 49 62 
0.581587 0.393334 4.53576 62 34 45 
0.717814 0.39363 4.53502 74 43 58 
0.86546 0.394527 4.54079 97 55 65 
1.10811 0.396004 4.57044 72 44 57 
-0.923464 0.389446 4.44603 95 45 55 
-0.88294 0.389367 4.44385 99 53 67 
-0.414578 0.391559 4.47117 88 54 72 
-0.0351726 0.394424 4.50971 84 47 64 
0.823399 0.402406 4.55351 123 95 107 
0.113828 0.400863 4.50514 126 95 110 
0.598076 0.403226 4.53156 134 87 99 
-1.43602 0.396691 4.41933 106 101 113 
0.70787 0.407429 4.53682 106 67 85 
1.80115 0.460908 5.04977 127 114 138 
0.880676 0.451965 4.54887 111 57 71 
0.484452 0.456102 4.51997 141 90 101 
-1.44588 0.44712 4.39885 43 24 24 
1.1522 0.470185 4.58187 90 40 49 
0.110362 0.46456 4.50209 98 50 66 
0.377982 0.464383 4.50598 100 51 65 
-1.39395 0.460919 4.41248 78 34 46 
0.562448 0.480065 4.51897 94 61 78 
0.953837 0.483916 4.55543 95 61 74 
0.485808 0.505005 4.53266 79 42 54 
0.113691 0.504568 4.4999 83 45 58 
-1.02166 0.499714 4.42261 72 37 50 
-1.89664 0.559734 4.83124 58 47 61 
1.77591 0.58831 5.03194 83 61 76 
1.86184 0.610828 5.03939 131 126 149 
1.8004 0.715103 5.00543 97 77 88 
-2.40925 0.712288 4.79666 121 111 127 
-1.86426 0.723772 4.8414 47 31 43 
-1.97199 0.732208 4.81992 57 47 61 
1.50671 0.915624 4.99199 131 122 139 
1.75955 0.919292 4.99625 65 46 69 
1.83838 0.933086 5.02694 65 56 75 
1.65587 0.938043 5.01195 118 92 114 
-0.284463 0.649873 3.4601 91 50 64 
1.99302 0.948088 5.02629 88 60 77 
0.369819 0.670403 3.49966 76 44 59 
-0.41691 0.66461 3.45895 73 39 52 
1.53684 0.963659 4.9924 109 95 108 
0.111671 0.68567 3.48678 99 47 62 
-0.405342 0.730012 3.44886 117 73 82 
0.14772 0.740183 3.47201 104 54 68 
-0.365873 0.73692 3.44306 101 56 73 
-2.13439 1.02065 4.75406 81 70 87 
-0.400165 0.740268 3.44898 62 35 40 
0.347861 0.74951 3.49044 102 51 63 
1.85686 1.06029 4.90615 87 73 90 
2.1905 1.06237 4.91854 71 49 60 
2.362 1.07099 4.93698 165 192 251 
2.21 1.07514 4.92069 49 86 151 
2.21072 1.07197 4.90586 146 185 243 
2.37094 1.08375 4.92465 66 56 134 
2.37704 1.08293 4.92197 20 23 72 
2.20141 1.09126 4.94291 22 20 40 
2.38213 1.10255 4.94011 171 185 246 
2.20607 1.10523 4.93664 120 122 161 
0.15063 0.783256 3.47891 96 51 68 
0.347695 0.785789 3.48879 88 42 55 
-0.538837 0.776856 3.44086 85 46 63 
-0.15174 0.799537 3.45769 109 57 75 
2.37339 1.1647 4.91456 162 176 241 
2.38881 1.16522 4.91585 46 21 79 
2.39993 1.17239 4.91597 15 20 31 
2.33081 1.1752 4.9104 19 26 65 
-0.401314 0.835018 3.43692 107 57 76 
-0.420172 0.857699 3.44291 92 49 66 
0.0929169 0.864891 3.47173 104 56 73 
-0.4813 0.871294 3.43607 92 60 81 
-1.91975 1.09713 3.94624 107 113 102 
-0.90046 1.08059 3.40066 87 95 117 
-0.415928 1.08276 3.36735 118 118 141 
-0.0923939 1.07513 3.29201 100 95 167 
-0.0524695 1.07052 3.27001 48 32 86 
-0.0573648 1.08248 3.26979 186 201 253 
1.46296 -1.70723 5.12095 86 68 90 
1.4736 -1.70036 5.14197 136 124 146 
1.79505 -1.69796 5.14674 57 43 60 
1.80256 -1.69659 5.14169 54 47 64 
2.09918 -1.70767 5.17608 68 57 82 
1.00325 -1.67856 5.10661 138 122 148 
1.48953 -1.68864 5.13295 67 44 75 
1.45024 -1.68017 5.12497 98 77 101 
1.58545 -1.61797 5.12893 83 60 88 
0.806443 -1.56215 5.08443 73 53 73 
0.941055 -1.55532 5.09378 93 70 92 
-1.05028 -1.47796 4.97934 89 71 88 
-1.26401 -1.47113 4.97298 62 43 52 
1.61791 -1.51618 5.12924 129 110 129 
1.00117 -1.50263 5.096 103 79 98 
0.762209 -1.49265 5.09514 66 50 70 
1.06154 -1.49381 5.09919 87 66 88 
0.752689 -1.48294 5.09289 106 84 102 
-0.933151 -1.45158 5.00178 52 45 70 
2.06197 -1.49464 5.15307 54 43 66 
1.23767 -1.47756 5.1053 81 62 84 
-0.927115 -1.42263 4.99316 102 82 102 
-0.168003 -1.31016 4.65785 91 50 58 
0.9396 -1.42224 5.08596 98 71 80 
-0.916014 -1.3788 4.98172 54 47 62 
0.870988 -1.41563 5.11374 82 54 67 
0.916601 -1.29589 5.06023 107 85 99 
-2.25815 -1.25192 4.9026 55 46 59 
1.77934 -1.3083 5.12801 120 110 133 
-0.588893 -1.17446 4.63251 64 27 35 
2.08263 -1.30229 5.13488 70 60 76 
0.305589 -1.15652 4.64656 76 32 48 
-0.405452 -1.13399 4.58854 61 25 40 
0.174453 -1.13076 4.61171 144 93 103 
0.20012 -1.13566 4.62904 150 99 112 
1.12268 -1.2476 5.08467 98 71 86 
-0.442148 -1.12129 4.58216 64 32 41 
-0.394744 -1.1269 4.60787 117 67 80 
0.116296 -1.12366 4.61411 72 28 43 
0.0788368 -1.12085 4.61508 94 54 60 
0.407867 -1.15729 4.76543 48 27 38 
-0.500829 -1.10974 4.59077 69 35 41 
0.204227 -1.11898 4.62787 138 90 106 
1.68485 -1.23773 5.12175 59 48 63 
-0.508906 -1.10102 4.58896 110 70 80 
-0.406966 -1.10151 4.60491 64 33 42 
-0.40693 -1.08918 4.60426 122 76 87 
-2.35594 -1.1285 4.90355 79 66 83 
-0.488118 -1.03951 4.62666 75 37 50 
1.13478 -1.1449 5.09781 117 87 103 
-2.36848 -1.09812 4.90169 130 112 131 
0.137958 -1.03684 4.64604 70 32 41 
-2.29231 -1.08815 4.89961 139 125 141 
1.3672 -1.13353 5.10775 128 105 119 
1.46445 -1.13344 5.12583 89 65 78 
1.70524 -1.12359 5.09971 119 101 120 
1.48408 -1.12084 5.1139 128 108 128 
-1.43634 -1.07982 4.96335 33 29 49 
1.66294 -1.11401 5.12528 71 62 79 
1.80523 -1.11349 5.12263 60 48 60 
1.31563 -1.10986 5.12204 62 41 51 
1.41566 -1.1055 5.0998 136 120 138 
1.70508 -1.10593 5.12691 65 51 71 
1.82568 -1.1065 5.12811 62 52 70 
-1.60353 -1.04358 4.94089 133 118 136 
2.07709 -1.02976 5.14405 137 112 134 
-0.191372 -0.893222 4.71158 83 45 56 
1.46244 -0.970698 5.1187 65 46 66 
-0.127812 -0.891026 4.71484 85 38 48 
-0.348852 -0.88635 4.71552 75 43 58 
1.9649 -0.959556 5.10534 135 117 139 
2.01482 -0.958533 5.127 89 63 85 
-2.37252 -0.894121 4.87332 111 99 117 
1.92185 -0.933941 5.13783 141 124 142 
1.69869 -0.92765 5.13539 130 107 123 
1.43886 -0.918142 5.10046 87 70 89 
-1.74192 -0.873695 4.90338 126 117 134 
0.907616 -0.900904 5.06109 83 56 73 
-0.187074 -0.830193 4.70855 66 33 40 
-0.212438 -0.825168 4.7066 78 39 50 
-0.259904 -0.810102 4.72139 74 38 48 
0.0679723 -0.812343 4.73278 57 25 30 
-0.192057 -0.799689 4.72599 117 69 81 
-0.055745 -0.799266 4.73214 53 24 29 
-0.0685315 -0.777784 4.73074 119 69 78 
-0.829705 -0.762494 4.76704 79 46 59 
-1.91493 -0.718723 4.9048 129 104 126 
-1.14987 -0.724368 4.94221 61 52 71 
-1.56771 -0.718018 4.92503 127 106 119 
0.970129 -0.727324 5.05402 111 75 88 
-0.824868 -0.655658 4.76326 71 31 40 
0.497592 -0.618383 4.8452 79 40 48 
-0.750602 -0.607215 4.78222 48 23 33 
-0.182437 -0.574341 4.69608 55 24 27 
-1.3156 -0.599334 4.9282 137 111 128 
-0.203526 -0.565475 4.69428 173 162 134 
-1.28486 -0.582024 4.9295 125 97 115 
-1.5267 -0.571519 4.92122 84 63 75 
-1.76609 -0.554713 4.92045 44 36 48 
-1.05125 -0.486977 4.73774 60 31 46 
-0.270668 -0.451199 4.68322 138 107 99 
-0.287417 -0.434175 4.68081 153 127 115 
-0.538735 -0.429267 4.66417 64 32 38 
0.207468 -0.432506 4.7061 68 30 41 
-0.296977 -0.419048 4.69836 151 132 114 
-1.05493 -0.420263 4.75414 80 35 42 
-1.76085 -0.42324 4.89341 51 46 64 
-0.422585 -0.39319 4.68168 62 28 38 
-0.312413 -0.375445 4.6754 163 144 128 
2.08923 -0.400445 5.10502 67 51 62 
-0.145586 -0.36649 4.73405 120 86 67 
-0.892203 -0.366089 4.77783 52 23 27 
-0.833697 -0.367581 4.78809 60 28 34 
-2.22365 -0.369583 4.87288 110 98 122 
-0.0942716 -0.306069 4.72864 195 180 159 
0.515039 -0.309785 4.84544 92 48 57 
-0.97028 -0.279726 4.78029 74 31 40 
0.636856 -0.284645 4.84158 53 26 35 
-0.134512 -0.268326 4.64508 185 174 154 
1.46506 -0.286696 5.06362 113 88 110 
-0.146738 -0.258366 4.63463 222 208 182 
0.501921 -0.270482 4.84538 73 40 52 
-0.158929 -0.253921 4.62444 152 131 110 
-0.997307 -0.259318 4.76501 63 30 36 
-0.575294 -0.24944 4.68739 73 32 39 
-1.07308 -0.249254 4.73913 78 31 38 
0.105489 -0.246358 4.70185 54 24 32 
2.01687 -0.216524 5.09653 109 86 98 
2.03687 -0.216441 5.1006 143 126 140 
2.04703 -0.216176 5.09154 73 53 69 
1.62769 -0.206452 5.08667 87 65 82 
-0.531368 -0.164675 4.67244 64 27 34 
-0.136627 -0.167341 4.71682 143 123 98 
0.216053 -0.144667 4.70959 82 42 53 
-0.169851 -0.1413 4.69447 147 131 116 
-0.858115 -0.119914 4.70823 96 46 53 
-0.858573 -0.107051 4.68751 126 76 85 
-0.586875 -0.0984948 4.67804 60 20 28 
0.0925909 -0.0972432 4.69444 78 32 42 
-2.02699 -0.0974359 4.86433 52 46 65 
-0.86265 -0.0951489 4.70973 81 38 47 
-0.464741 -0.0849505 4.68 63 26 34 
0.447327 -0.0869302 4.82233 73 31 39 
0.697198 -0.0712952 4.8363 98 45 55 
-0.704508 -0.0621055 4.7894 57 21 28 
-0.131598 -0.0584786 4.5423 106 104 107 
-0.228823 -0.0545407 4.60302 84 75 73 
0.383809 -0.0582863 4.84393 125 75 84 
-0.156128 -0.0502522 4.54093 201 200 198 
0.682095 -0.0484412 4.85298 77 33 40 
-1.89414 -0.0457146 4.86096 91 63 75 
1.64238 -0.019523 5.04716 97 73 86 
-0.183203 -0.00575149 4.50161 106 99 106 
-0.166996 -0.00583219 4.50241 20 16 33 
2.09046 -0.00536934 5.06317 121 106 125 
-0.119255 0.0060222 4.53961 152 147 142 
0.0537322 0.028116 4.6315 187 177 167 
0.0579004 0.0363539 4.63097 178 169 162 
-0.368015 0.0402928 4.68373 116 102 117 
0.0160759 0.0404715 4.61274 115 92 84 
0.00359616 0.0446308 4.61267 88 67 75 
-0.4333 0.0530847 4.65902 78 35 42 
-0.202489 0.0511001 4.57016 37 25 22 
0.10507 0.0533906 4.68611 62 22 33 
0.207086 0.0531711 4.69968 55 22 29 
-0.530303 0.0576147 4.66228 60 22 33 
-0.033565 0.060658 4.57478 129 115 130 
0.504149 0.0644674 4.82532 78 33 43 
-0.449819 0.0654536 4.65602 125 72 82 
0.0539206 0.0696913 4.64842 123 108 113 
0.160543 0.0701843 4.70196 57 30 37 
-2.34016 0.0766083 4.8224 75 66 93 
-0.383352 0.0777191 4.66467 69 38 51 
1.78766 0.0892531 5.05897 129 108 128 
0.994909 0.0875875 4.75843 94 60 77 
1.53368 0.0940917 5.04884 122 117 139 
0.45247 0.112477 4.83111 87 36 47 
-1.30386 0.110248 4.61748 97 57 76 
0.727965 0.129352 4.83798 64 28 35 
-1.11283 0.134274 4.74385 51 20 28 
1.00623 0.134828 4.75111 88 40 51 
0.215273 0.153834 4.69366 63 32 45 
-1.2888 0.160524 4.62309 88 39 42 
0.981559 0.173077 4.73542 128 80 96 
-2.16101 0.184196 4.8301 38 30 52 
-2.03406 0.188062 4.82861 131 112 124 
-2.16945 0.192073 4.81985 34 34 55 
-2.17308 0.201813 4.80851 101 106 156 
-2.13489 0.210961 4.83005 37 32 48 
-2.27215 0.213473 4.81641 19 30 59 
-2.14239 0.218343 4.82741 22 21 38 
-2.16054 0.227499 4.82899 162 181 249 
-2.25815 0.24942 4.81418 31 55 113 
2.036 0.2673 5.05249 63 44 54 
2.04917 0.271273 5.04005 147 130 141 
-2.19494 0.282837 4.80888 17 32 84 
-2.20825 0.296396 4.80946 161 178 241 
1.89805 0.333695 5.03705 99 67 78 
-2.2514 0.319776 4.79065 40 67 115 
-2.16838 0.34046 4.82692 149 175 241 
-2.27957 0.343852 4.81351 32 32 53 
-2.2608 0.344337 4.81976 155 166 227 
-2.28832 0.35286 4.81361 30 35 54 
-2.14072 0.353823 4.82333 24 19 35 
-0.167115 0.342145 4.5036 69 63 102 
-2.18193 0.369883 4.82808 154 173 231 
1.65524 0.388563 5.00337 84 124 213 
1.16391 0.359481 4.56298 85 45 56 
-0.113892 0.356909 4.48684 129 143 188 
-0.0290449 0.358593 4.50542 85 41 61 
0.101291 0.36004 4.5199 80 43 60 
1.66281 0.406884 5.03993 40 48 125 
0.957912 0.377195 4.58147 101 55 66 
-0.946225 0.37698 4.48107 102 55 63 
-0.868418 0.374195 4.4552 99 50 65 
-0.179201 0.381938 4.50124 136 90 101 
-1.25228 0.381 4.43434 124 82 94 
