ply
format ascii 1.0           { ascii/binary, format version number }
comment made by Greg Turk  { comments keyword specified, like all lines }
comment this file is a cube
element vertex 1294
property float x
property float y
property float z
property uchar red
property uchar green
property uchar blue
end_header
1.13699 0.869937 4.59711 129 125 145 
1.75478 0.834341 4.35902 79 61 73 
0.571607 0.845412 4.32714 65 35 45 
1.10913 0.906889 4.60597 78 67 99 
1.07078 0.963358 4.59605 88 77 94 
-2.64709 1.27931 5.93789 88 74 96 
1.47453 1.05625 4.43978 118 114 142 
-1.05415 0.929238 3.88998 73 39 56 
-0.112186 0.903352 3.67474 114 61 80 
0.0109999 0.967643 3.73037 98 55 71 
-0.0850295 1.00906 3.67361 101 58 81 
1.82873 1.17827 4.19802 41 39 62 
1.94123 1.17105 4.14211 143 168 224 
1.95066 1.16857 4.13545 148 178 242 
1.95635 1.16961 4.13595 106 121 183 
1.79704 1.19138 4.20081 62 45 61 
1.93619 1.17908 4.15059 48 55 129 
1.81228 1.20008 4.19385 27 41 86 
1.98684 1.18497 4.12838 31 39 55 
1.96378 1.18845 4.129 75 74 154 
1.96775 1.19343 4.12596 135 157 218 
1.8977 1.23392 4.15325 135 163 227 
1.80623 1.25981 4.1881 64 43 59 
1.79366 1.27448 4.19713 58 37 53 
1.94785 1.28406 4.14086 32 56 126 
1.83862 1.29664 4.17089 92 110 153 
1.84598 1.2981 4.1752 127 140 189 
1.83077 1.29888 4.16941 19 33 59 
1.96433 1.29209 4.12631 40 27 55 
2.1414 1.3252 4.1742 67 72 86 
-1.09314 1.22912 3.80768 118 125 142 
1.50902 -1.48577 4.67144 71 51 78 
1.48392 -1.4853 4.68457 90 73 93 
1.23333 -1.48383 4.78445 76 60 83 
1.20588 -1.4772 4.79445 96 80 93 
0.976399 -1.49575 4.886 128 111 130 
0.499907 -1.53923 5.07182 73 50 76 
0.470956 -1.52974 5.07385 106 81 103 
1.3297 -1.41566 4.73626 78 68 92 
0.722497 -1.47222 4.98175 84 69 90 
0.602914 -1.45122 5.02542 73 61 79 
1.19985 -1.36301 4.7705 104 85 105 
1.27143 -1.35189 4.74027 90 66 89 
-1.02419 -1.5885 5.6359 128 111 131 
1.50384 -1.2945 4.64793 100 76 99 
0.573966 -1.39572 5.0245 100 71 93 
1.51408 -1.29082 4.64212 56 35 55 
0.599709 -1.39289 5.02064 90 71 90 
0.735012 -1.36327 4.94349 100 74 98 
1.51257 -1.27277 4.65248 84 68 94 
0.59795 -1.36683 5.00566 91 71 96 
0.613158 -1.35084 5.00197 75 54 74 
-1.27034 -1.54582 5.73776 77 65 88 
-1.68106 -1.57061 5.89657 111 97 115 
-1.2687 -1.49924 5.73032 76 56 76 
0.644152 -1.29567 4.9792 104 80 93 
0.540554 -1.27215 5.03088 111 100 115 
-2.74155 -1.56951 6.28911 123 121 158 
-2.74196 -1.55966 6.29018 64 76 120 
1.28124 -1.10495 4.73089 111 92 108 
-1.76927 -1.36276 5.90393 67 48 70 
1.4015 -1.07616 4.67084 78 66 84 
1.27628 -1.08748 4.73081 120 102 118 
1.40674 -1.06855 4.68015 113 88 102 
1.27376 -1.07748 4.73063 101 81 101 
-1.25498 -1.27945 5.70921 99 66 84 
1.29832 -1.05574 4.73013 69 45 62 
-2.73851 -1.39087 6.25246 93 101 142 
0.713103 -1.09244 4.93449 93 72 89 
0.676349 -1.09351 4.96743 67 46 65 
-2.00527 -1.2865 5.99227 79 62 84 
-1.29137 -1.22897 5.72548 128 100 114 
0.702627 -1.05749 4.93342 79 55 76 
-2.00449 -1.22332 5.99013 79 64 84 
1.6024 -0.920464 4.57624 70 58 70 
1.08513 -0.959951 4.79178 95 69 87 
1.10266 -0.939987 4.77023 81 59 71 
1.41824 -0.912844 4.65379 77 57 82 
-0.0878583 -0.929196 4.79263 102 55 66 
1.17067 -0.91099 4.75322 125 106 125 
-2.28549 -1.14998 6.06387 128 108 117 
1.07029 -0.910557 4.80374 78 49 61 
-2.47894 -1.159 6.15158 130 106 122 
-0.635833 -0.945191 5.0108 89 55 69 
-0.640827 -0.938547 5.00961 111 73 86 
-2.39595 -1.14352 6.12004 65 50 65 
-0.660049 -0.932946 5.01607 81 45 59 
0.647266 -0.912439 4.94314 98 70 85 
-1.55247 -1.01863 5.7857 75 52 67 
0.702501 -0.85756 4.91429 138 125 147 
-1.83621 -1.01313 5.89183 46 33 50 
0.708695 -0.815606 4.9217 100 74 95 
-2.24982 -0.996464 6.03647 66 49 60 
-2.30072 -0.998583 6.07116 51 45 56 
1.19707 -0.777717 4.72038 68 48 63 
1.60849 -0.74782 4.55976 127 111 132 
1.30537 -0.723246 4.68466 75 57 81 
-2.32132 -0.933234 6.07527 54 45 62 
1.20806 -0.722171 4.7152 75 61 87 
-0.510082 -0.765919 5.08761 78 37 48 
1.12521 -0.711036 4.76032 79 63 89 
1.11125 -0.69767 4.76439 101 92 111 
-1.46668 -0.835384 5.73421 68 58 80 
0.816141 -0.68382 4.85791 85 72 93 
-2.28617 -0.832556 6.03282 132 118 135 
-0.415792 -0.690643 5.03907 78 40 48 
-2.01628 -0.803755 5.9429 83 59 83 
1.73083 -0.559558 4.48824 60 43 59 
-1.54659 -0.707409 5.74234 79 64 79 
1.12419 -0.559852 4.75603 115 115 133 
-1.77058 -0.634604 5.83858 126 112 131 
-1.41958 -0.618823 5.68961 83 66 84 
-1.8829 -0.621179 5.88492 128 118 139 
-2.33702 -0.630204 6.02629 109 95 112 
-2.02031 -0.616411 5.92764 53 42 66 
1.71895 -0.422432 4.4879 90 60 75 
-1.09214 -0.481099 5.28359 77 44 55 
0.191334 -0.441512 4.89362 70 35 39 
1.40169 -0.374544 4.61548 130 123 140 
-2.45698 -0.453967 6.06652 74 59 80 
-0.453203 -0.367464 5.01798 122 102 87 
-0.414644 -0.366482 4.9949 131 111 103 
-0.488575 -0.336741 5.05879 77 55 41 
1.49935 -0.247829 4.56813 64 47 63 
-0.381563 -0.252459 4.97206 183 168 147 
-0.0556224 -0.242873 4.83287 89 47 57 
-1.78816 -0.277175 5.8071 79 64 90 
-0.507452 -0.23252 5.03687 150 125 113 
-0.416736 -0.221431 4.95827 211 205 183 
-0.746353 -0.225351 5.10678 64 28 37 
-0.155949 -0.203418 4.8944 74 31 38 
-0.52785 -0.19872 5.03085 147 124 114 
1.21303 -0.175767 4.65873 82 60 79 
-0.78514 -0.188455 5.13402 67 31 41 
-0.325583 -0.180575 4.98917 206 195 167 
-0.532789 -0.161461 5.02807 158 138 124 
-0.468064 -0.148747 4.92668 151 128 110 
1.20242 -0.136105 4.64592 133 112 130 
-2.4404 -0.169071 6.03368 68 60 79 
-2.2038 -0.1311 5.93926 58 46 60 
0.22336 -0.100668 4.86653 99 49 58 
0.314449 -0.0993165 4.82238 92 44 56 
-0.323617 -0.0890258 4.95932 190 183 155 
1.21114 -0.0813769 4.66085 82 57 76 
-0.442803 -0.0832895 4.9035 159 144 119 
-0.435222 -0.0783624 4.90457 181 166 145 
1.20869 -0.0715385 4.66077 115 96 116 
1.71698 -0.0620208 4.45858 73 49 69 
-0.386515 -0.0649835 4.90368 129 115 105 
-0.412432 -0.0623286 4.90761 157 133 109 
-0.0557359 -0.0618239 4.84504 95 49 59 
-0.0504326 -0.0615807 4.82143 76 35 43 
1.20542 -0.0603626 4.64818 79 57 81 
-0.976947 -0.0645691 5.33301 80 41 50 
-0.938458 -0.0656002 5.28853 67 31 37 
-0.145166 -0.0590232 4.87674 86 40 51 
1.70171 -0.0547603 4.45515 138 120 130 
-1.03106 -0.0626613 5.32495 64 31 36 
-1.10139 -0.0612816 5.36975 75 35 44 
-0.376048 -0.0550071 4.90067 92 78 63 
-0.388661 -0.0498825 4.89849 169 152 127 
-0.157772 -0.0496221 4.87293 85 39 49 
-0.643964 -0.0479906 5.05661 70 28 39 
-0.360839 -0.0476229 4.9025 174 164 137 
-0.681546 -0.0466226 5.08099 64 23 32 
0.993171 -0.0386745 4.74667 55 40 58 
-0.0556631 0.0191078 4.83986 93 41 53 
-0.734288 0.0356842 5.09756 75 30 37 
0.255547 0.0623522 4.75624 112 56 69 
-0.157477 0.0895483 4.86459 84 36 42 
-0.428411 0.11317 4.8001 119 110 115 
-0.383834 0.119254 4.80648 199 190 173 
-0.429404 0.123281 4.81126 187 187 177 
-0.326914 0.128934 4.85512 166 148 136 
0.114207 0.13629 4.86712 96 43 51 
-0.364792 0.13679 4.82006 127 110 111 
-0.431115 0.145489 4.77463 216 209 203 
1.3075 0.139775 4.59776 88 65 81 
1.35503 0.140009 4.57189 105 83 101 
-0.397608 0.149532 4.79115 202 200 187 
1.27784 0.150084 4.61192 73 53 69 
-0.390159 0.158135 4.79187 121 108 110 
-0.449091 0.159916 4.7804 77 59 49 
-0.433504 0.160107 4.77355 103 90 74 
-0.440857 0.162527 4.77226 86 75 59 
1.46946 0.154286 4.54217 120 111 124 
0.619072 0.167129 4.68975 81 32 38 
-0.469388 0.183113 4.86148 56 52 67 
-0.43199 0.181241 4.78437 43 41 55 
-0.424592 0.183707 4.78541 99 93 103 
-0.417188 0.186173 4.78642 83 78 85 
-0.409779 0.188641 4.78742 122 119 123 
-0.289668 0.198479 4.82568 164 155 150 
-0.274916 0.197734 4.83206 186 176 166 
-0.385021 0.203399 4.79026 128 114 101 
-0.255766 0.224598 4.80392 113 89 79 
-0.228853 0.22768 4.81787 210 203 193 
-2.67348 0.291028 6.09177 86 80 102 
-2.65443 0.289952 6.07003 83 70 95 
-0.258859 0.235012 4.81487 155 143 143 
-0.146757 0.236133 4.8467 72 25 35 
-0.111277 0.235906 4.84353 92 39 49 
1.26165 0.224371 4.60553 77 57 71 
1.54794 0.223336 4.48119 130 113 131 
-0.642307 0.253863 5.04409 70 24 35 
0.320192 0.241597 4.79482 93 41 46 
-0.218244 0.246828 4.80582 56 32 32 
-0.21176 0.256713 4.82933 105 89 92 
1.25004 0.267733 4.5982 79 60 87 
1.22543 0.271473 4.62301 102 83 108 
-1.23871 0.351629 5.37039 64 26 35 
-0.103434 0.316881 4.83151 88 33 39 
0.731358 0.297788 4.52152 54 28 39 
-1.45808 0.354903 5.32202 74 32 39 
-0.733251 0.337334 5.07246 75 27 38 
-0.684167 0.335853 5.06191 82 35 45 
-2.27694 0.443944 5.92852 44 35 57 
-2.19573 0.44453 5.89321 52 52 68 
-2.25255 0.455089 5.90505 122 119 175 
-2.19495 0.45275 5.8746 118 132 196 
-2.15909 0.461603 5.88564 39 31 46 
-2.2861 0.466843 5.91227 37 51 81 
-2.1826 0.481356 5.89096 159 182 247 
-2.53842 0.512402 5.99808 128 120 142 
1.36537 0.409839 4.52713 78 65 82 
-2.25115 0.5397 5.91758 37 29 72 
1.18173 0.42436 4.61254 94 74 97 
1.17596 0.428203 4.62772 136 128 146 
1.20811 0.42723 4.61216 110 106 128 
-2.18185 0.572767 5.85606 18 32 101 
-2.29264 0.595924 5.89731 51 47 74 
-2.28381 0.597703 5.91427 144 147 207 
-2.16541 0.59647 5.85303 17 33 85 
-2.30716 0.607799 5.91871 58 56 77 
-2.15539 0.602667 5.85065 31 22 38 
-2.19124 0.616889 5.86481 136 165 228 
-2.25301 0.622633 5.89029 144 143 193 
-2.27331 0.634299 5.89531 26 37 60 
-2.18206 0.638483 5.85642 20 26 47 
-1.67793 0.573732 5.21995 80 51 56 
-1.61609 0.568628 5.17902 80 47 49 
1.18752 0.505464 4.59767 83 66 84 
-1.26127 0.561365 5.06727 94 50 65 
-1.11549 0.572656 4.99444 111 64 77 
-0.482861 0.558922 4.76948 74 39 52 
-1.65679 0.613145 5.21359 90 81 92 
-1.17117 0.590774 5.02099 85 46 55 
0.766671 0.50476 4.29628 70 33 45 
-1.26281 0.598173 5.06279 76 44 57 
-0.130566 0.546687 4.63309 81 41 50 
-0.0651577 0.54578 4.62309 110 64 79 
1.35764 0.535727 4.51717 70 112 205 
0.213494 0.536222 4.49687 96 50 60 
1.36158 0.537835 4.51458 81 120 207 
0.280741 0.536529 4.48397 92 46 60 
0.27078 0.541123 4.47424 139 92 108 
0.631596 0.525864 4.3542 99 50 61 
-0.337381 0.572931 4.71874 98 56 75 
-0.207299 0.566752 4.67308 85 53 68 
-0.0796091 0.559926 4.62215 98 53 71 
0.266746 0.550538 4.48464 105 57 70 
0.355353 0.549169 4.45143 76 44 56 
0.489715 0.547665 4.40636 81 47 54 
0.707966 0.541456 4.32109 73 43 59 
-1.24831 0.656115 5.0575 69 37 52 
1.134 0.597528 4.61424 62 44 58 
-1.61998 0.676805 5.1913 85 45 54 
1.37646 0.592019 4.52474 94 71 90 
1.39171 0.593744 4.52831 85 63 80 
1.85873 0.567674 4.32829 119 95 107 
-1.25874 0.667368 5.04651 107 62 75 
-0.909663 0.656996 4.92428 113 59 73 
0.107855 0.442429 3.28147 120 70 81 
1.08977 0.628823 4.63091 54 36 48 
-0.206628 0.63568 4.65789 107 60 75 
0.800608 0.962511 7.00632 78 35 46 
0.139565 0.627791 4.53411 83 38 55 
0.492487 0.608745 4.39015 136 87 97 
1.09385 0.640641 4.6277 108 102 123 
0.756693 0.59648 4.29054 77 36 43 
1.08942 0.643295 4.62939 107 103 123 
-2.66936 0.978153 5.99716 55 49 71 
1.13887 0.870575 4.60472 121 121 142 
1.10725 0.904085 4.60309 78 64 91 
-2.79322 1.25129 6.01445 151 171 205 
1.07279 0.963912 4.5995 85 71 91 
1.32437 1.04036 4.50823 89 89 110 
-2.79013 1.3779 5.90197 116 134 146 
1.47797 1.05692 4.44656 113 109 138 
-1.05485 0.927927 3.88762 73 34 49 
0.565786 1.05869 4.30292 62 40 43 
-0.573646 0.91325 3.70102 85 45 63 
-0.156221 0.920674 3.65131 132 87 102 
-0.0923317 0.929898 3.68549 122 69 82 
1.44313 1.16718 4.34861 101 83 105 
-0.092044 0.993888 3.6749 111 58 73 
-0.0863172 1.00794 3.67369 98 57 77 
1.97617 1.1574 4.13452 62 44 60 
1.9586 1.16265 4.13845 58 45 62 
1.82373 1.18375 4.19078 56 98 158 
1.82843 1.18284 4.18649 127 165 227 
1.83724 1.18423 4.19165 144 170 233 
1.95553 1.16934 4.1364 92 110 168 
1.85061 1.18758 4.18722 70 59 130 
1.81232 1.19738 4.19979 12 18 38 
1.82071 1.21005 4.20393 113 132 184 
1.9671 1.19074 4.13814 81 79 155 
1.97112 1.19626 4.13291 135 157 218 
1.88802 1.23174 4.15892 155 172 241 
1.89384 1.23828 4.15268 75 65 143 
1.80765 1.26023 4.19389 81 61 72 
1.79577 1.27486 4.20209 58 37 53 
1.98376 1.26267 4.1189 60 40 71 
1.85465 1.2888 4.16677 104 94 169 
1.94585 1.28276 4.14349 14 31 97 
1.84263 1.29829 4.17908 84 111 162 
1.8457 1.29746 4.17613 132 155 208 
1.96078 1.28587 4.12926 137 147 209 
1.9609 1.28934 4.12049 48 31 74 
-1.08904 1.22765 3.81516 86 105 129 
-0.897599 1.20665 3.57587 105 114 178 
-0.714438 1.21084 3.58403 41 48 97 
-0.740258 1.20406 3.49408 65 39 111 
1.69338 -1.42618 4.58299 132 107 126 
1.23242 -1.48256 4.77703 76 60 83 
1.24302 -1.47238 4.77178 67 47 76 
1.20862 -1.47862 4.80136 96 79 94 
1.34301 -1.38735 4.73437 81 64 88 
1.07549 -1.3873 4.83841 128 109 126 
1.23301 -1.3423 4.74478 92 64 83 
1.50759 -1.29716 4.65655 99 75 98 
1.51295 -1.28921 4.63717 56 35 55 
-1.26358 -1.58708 5.72912 71 54 69 
1.07724 -1.34053 4.83264 84 59 78 
0.599101 -1.36928 5.0108 91 71 96 
1.50715 -1.26861 4.63724 85 70 94 
0.732084 -1.34613 4.95514 91 64 83 
-1.27168 -1.54935 5.74975 77 65 88 
-0.50355 -1.34608 4.98845 100 47 67 
1.4931 -1.247 4.65691 95 74 91 
0.842238 -1.28704 4.90965 83 63 90 
0.60153 -1.30901 5.00503 81 60 75 
-2.11467 -1.56053 6.02752 83 64 79 
0.755235 -1.28104 4.94409 82 64 85 
-0.950846 -1.25441 5.07484 74 43 49 
0.742346 -1.21851 4.94074 96 72 84 
-1.52327 -1.41919 5.83013 83 66 88 
0.67079 -1.20375 4.98384 75 50 63 
1.29191 -1.10525 4.72115 43 28 41 
-1.77118 -1.36574 5.91419 67 48 70 
1.38199 -1.07969 4.67576 89 67 86 
1.29294 -1.05338 4.71413 85 62 76 
0.71362 -1.09377 4.93467 93 72 89 
1.26293 -1.04324 4.72337 82 64 83 
0.715539 -1.0767 4.94775 95 85 110 
0.517686 -1.08852 5.01259 109 80 99 
-1.30912 -1.23901 5.74028 79 53 63 
0.704156 -1.05955 4.93332 73 56 75 
-1.43925 -1.22122 5.75744 79 59 66 
-1.83334 -1.20179 5.91212 57 46 67 
1.08494 -0.958915 4.78652 88 64 82 
0.163853 -0.965892 4.85391 88 48 57 
0.139042 -0.956196 4.83656 45 22 30 
1.42256 -0.916716 4.66478 66 53 71 
-0.197043 -0.93794 4.83144 65 32 45 
-0.172663 -0.927292 4.8281 78 35 50 
-2.40574 -1.14885 6.14481 65 50 65 
0.79738 -0.914398 4.89854 104 81 101 
0.650122 -0.913398 4.94524 92 63 76 
-0.838946 -0.925829 5.09175 81 38 48 
-2.29232 -1.10223 6.07886 125 110 117 
-0.803927 -0.912897 5.07194 74 33 47 
-0.754467 -0.893328 5.05901 115 73 85 
-1.81713 -1.03182 5.90756 123 114 130 
-0.118023 -0.838782 4.81932 72 35 47 
0.913147 -0.83957 4.8292 98 73 95 
1.70041 -0.779028 4.52565 93 74 94 
0.695295 -0.840084 4.91422 112 83 104 
0.709058 -0.81601 4.92416 100 74 95 
-2.26122 -0.999634 6.05694 61 48 57 
1.19732 -0.777006 4.72135 68 48 63 
1.20766 -0.764444 4.71552 134 111 124 
1.60648 -0.734379 4.56483 64 43 66 
1.40505 -0.737692 4.65521 121 100 115 
1.27352 -0.725929 4.69702 76 63 75 
-2.31806 -0.933237 6.06672 54 45 62 
-0.281223 -0.76653 4.98496 83 39 44 
1.21273 -0.724276 4.72378 76 63 88 
-0.509305 -0.765555 5.08 91 49 59 
1.12605 -0.711162 4.75758 73 56 82 
1.11201 -0.69648 4.76123 95 86 106 
-1.46569 -0.834688 5.73511 68 58 80 
0.86153 -0.703586 4.8451 117 108 130 
0.632617 -0.706498 4.92932 119 96 112 
0.793979 -0.696231 4.87752 126 108 124 
0.814739 -0.682954 4.85553 88 74 93 
-2.35919 -0.843131 6.07496 129 113 135 
-2.28976 -0.833828 6.04261 132 118 135 
-0.355117 -0.68997 5.01443 82 39 46 
-0.416406 -0.689902 5.0338 76 40 47 
1.73036 -0.559265 4.48581 59 42 57 
-0.352177 -0.621802 5.01728 58 25 31 
-1.55188 -0.710919 5.77522 68 50 64 
-0.201956 -0.601381 4.95549 65 34 39 
-0.59546 -0.60045 5.08266 79 37 49 
1.12557 -0.56155 4.75553 98 94 112 
-1.80725 -0.637265 5.86466 63 45 59 
-1.76745 -0.634045 5.83021 126 112 131 
1.71977 -0.423614 4.48759 81 54 69 
-1.09926 -0.48007 5.30209 69 40 52 
-1.36613 -0.491023 5.6654 91 65 76 
0.247277 -0.405516 4.87824 68 34 43 
0.932847 -0.392522 4.80596 111 103 127 
1.40033 -0.362293 4.6015 69 55 73 
1.488 -0.329796 4.57866 116 100 115 
-0.490226 -0.347325 5.04851 39 18 17 
-0.485741 -0.338532 5.06788 84 62 45 
-1.80505 -0.31237 5.82246 100 89 106 
-0.381956 -0.252959 4.95703 180 163 144 
-0.118698 -0.243177 4.85357 76 33 42 
1.15989 -0.22592 4.70152 65 45 52 
-0.505449 -0.235617 5.04318 148 120 109 
-0.682378 -0.225345 5.09082 65 33 41 
-0.517094 -0.216581 5.03355 131 104 96 
-0.00315588 -0.204476 4.82699 75 33 43 
-0.438098 -0.206966 4.96007 201 190 168 
-0.379398 -0.200511 5.00499 119 92 65 
1.72567 -0.178866 4.47383 93 74 93 
-0.527207 -0.19827 5.03981 145 125 114 
-0.113201 -0.191993 4.87954 66 30 40 
0.31723 -0.186809 4.82659 65 30 36 
0.113827 -0.186074 4.91797 90 43 53 
1.21293 -0.177419 4.65651 87 65 84 
-0.326421 -0.183831 5.01005 203 196 168 
-0.974337 -0.152055 5.32773 74 36 44 
-0.305565 -0.141928 4.97713 192 182 157 
-2.44126 -0.168003 6.03435 68 60 79 
0.305876 -0.136089 4.83819 134 86 100 
-2.453 -0.166066 6.03523 64 60 83 
-0.532391 -0.13155 5.02936 144 120 108 
-2.44526 -0.15433 6.03484 106 103 130 
-2.01191 -0.150007 5.88378 108 90 97 
-2.09224 -0.141491 5.8818 62 62 83 
-0.328059 -0.108352 4.98743 189 172 146 
0.390409 -0.104429 4.79717 85 44 52 
0.260503 -0.0996974 4.83944 70 34 44 
-2.76035 -0.12308 6.15602 60 68 103 
-0.327006 -0.0897114 4.97142 193 186 157 
1.21379 -0.0833364 4.65981 71 50 68 
-0.433628 -0.0787244 4.90979 185 173 151 
1.20825 -0.0715282 4.66093 115 93 116 
-0.088087 -0.0715269 4.8445 106 53 63 
1.7176 -0.0667129 4.43136 121 107 124 
-0.399728 -0.0660607 4.90888 228 219 190 
1.71366 -0.0612054 4.44995 70 45 63 
-0.386892 -0.0639459 4.90193 143 131 115 
-0.015198 -0.0627925 4.81751 78 32 42 
-0.106881 -0.0594575 4.87167 70 33 41 
-0.374719 -0.0550361 4.9033 94 75 60 
-0.386843 -0.0519175 4.90131 181 167 141 
-0.344299 -0.049287 4.90735 178 167 141 
-0.776084 -0.0434401 5.12049 73 33 41 
1.26784 -0.0349026 4.61231 89 69 81 
-0.78809 -0.0337987 5.13606 69 33 42 
0.13795 -0.0179457 4.89928 63 26 33 
1.52446 -0.00594676 4.52527 44 32 51 
0.113398 0.000417479 4.89884 71 28 38 
0.330212 0.00934682 4.79534 142 91 103 
-0.103416 0.0212187 4.85241 75 29 32 
0.757095 0.0238786 4.54575 63 30 37 
-0.683992 0.0352622 5.07962 75 31 38 
-0.350162 0.0448763 4.99131 178 163 130 
-0.155663 0.0900499 4.87137 76 29 37 
-0.632407 0.102257 5.04884 65 23 35 
-0.115425 0.0989517 4.84698 98 48 57 
0.359459 0.096965 4.78479 57 21 23 
-1.02602 0.11852 5.25114 77 34 48 
-0.430847 0.122337 4.81049 177 178 170 
-0.41917 0.130686 4.8148 104 102 105 
0.353333 0.129704 4.78293 76 35 43 
0.158103 0.134106 4.85802 81 36 43 
-0.365468 0.136607 4.82233 122 104 104 
0.119309 0.13817 4.88884 64 24 32 
1.11574 0.141524 4.6769 101 73 91 
-0.398907 0.147521 4.78878 198 196 185 
-0.381842 0.150775 4.80045 206 199 189 
1.76005 0.143573 4.41263 127 110 126 
-0.440233 0.162114 4.78169 110 98 82 
1.26061 0.156298 4.60699 120 114 132 
1.46885 0.153152 4.53738 123 112 128 
1.47572 0.158721 4.5323 79 64 78 
1.60411 0.157232 4.46307 115 88 111 
1.6398 0.156778 4.45374 106 79 94 
0.619527 0.168591 4.68947 75 27 34 
1.73186 0.161387 4.4324 141 133 155 
-0.47686 0.180097 4.78874 83 72 81 
-0.462112 0.18015 4.79129 29 25 41 
-0.43129 0.181141 4.78211 25 24 39 
-0.42537 0.184089 4.78289 99 93 103 
-0.416496 0.185618 4.78429 83 78 85 
-0.386818 0.201812 4.78771 114 107 99 
-0.371961 0.207736 4.78945 71 52 37 
-0.235383 0.220528 4.81779 195 187 184 
-0.238369 0.227894 4.81701 198 190 179 
-2.67208 0.291219 6.09585 81 70 95 
-2.66425 0.29118 6.09539 86 72 97 
-0.269002 0.230754 4.82552 85 71 84 
-0.0150949 0.232463 4.79814 81 34 42 
-0.106123 0.237639 4.83876 78 31 39 
-0.051288 0.234722 4.81193 69 22 32 
-0.225653 0.2376 4.80346 100 74 75 
-0.681096 0.254704 5.05844 69 27 36 
0.262447 0.242532 4.81876 89 41 48 
0.321034 0.240479 4.79244 84 33 40 
-1.03326 0.284698 5.32242 66 28 36 
-0.968864 0.282319 5.28028 65 25 33 
-0.188815 0.265933 4.86163 61 31 31 
-1.46479 0.330102 5.36498 108 59 77 
-1.24295 0.353236 5.39351 74 31 38 
-0.054235 0.313246 4.80682 93 40 48 
0.728723 0.297568 4.51104 52 28 38 
-1.46297 0.355388 5.34611 75 32 39 
-0.684121 0.335716 5.05765 82 35 45 
-2.18822 0.436192 5.9029 34 31 51 
-2.00998 0.431814 5.82539 94 88 102 
-2.06233 0.436679 5.83932 123 108 123 
-2.19566 0.444547 5.89293 52 52 68 
-2.29717 0.455561 5.93589 50 54 79 
-2.25204 0.455048 5.90549 122 119 175 
-2.19472 0.454403 5.87061 118 132 196 
-2.15894 0.467241 5.86347 18 21 59 
-2.28548 0.480658 5.93461 145 144 201 
-2.1839 0.481063 5.89111 159 180 248 
-2.18794 0.500482 5.89195 38 57 125 
-2.21932 0.535731 5.8774 65 84 141 
1.17097 0.426037 4.61756 135 129 150 
1.18385 0.425492 4.61142 82 59 81 
-2.17239 0.562053 5.88996 65 61 94 
-2.18759 0.571774 5.8713 18 23 82 
1.36404 0.439549 4.52903 69 112 206 
-2.27591 0.594617 5.89075 129 129 186 
-2.19284 0.59536 5.89544 129 154 218 
-2.30928 0.609131 5.91949 49 49 70 
-2.25719 0.623742 5.90914 153 161 215 
-2.19942 0.619035 5.8636 158 178 237 
-2.27361 0.629878 5.91363 23 17 42 
-2.19622 0.629811 5.87493 25 28 55 
-2.17927 0.63474 5.84913 20 26 47 
-1.6251 0.572979 5.21112 82 48 49 
-0.462084 0.52235 4.76059 75 64 101 
-1.39703 0.564613 5.11702 94 55 63 
-1.26855 0.565741 5.08984 76 35 51 
-0.481043 0.529339 4.7713 117 130 172 
-0.55606 0.541127 4.80002 96 50 63 
-1.5414 0.587274 5.17131 77 45 46 
-1.46722 0.584055 5.13824 98 59 67 
-0.483924 0.54095 4.77032 127 115 147 
-0.412524 0.537663 4.73924 128 140 185 
-1.18644 0.578096 5.03911 82 38 45 
0.362612 0.516462 4.455 99 51 67 
-1.62144 0.608632 5.20987 59 42 50 
-1.48711 0.600789 5.15157 80 44 55 
0.485738 0.514231 4.4079 86 43 55 
-1.39965 0.599911 5.11486 79 43 53 
-0.130778 0.547424 4.63944 81 41 50 
1.20963 0.542721 4.59964 116 112 134 
-0.0635883 0.546167 4.61429 88 45 59 
-0.912757 0.588917 4.94104 99 54 74 
1.36306 0.537818 4.51635 78 117 205 
-0.122029 0.554666 4.63946 119 80 89 
0.56721 0.527351 4.37634 104 54 63 
-0.338863 0.570251 4.70495 89 53 70 
-0.0780432 0.558824 4.61324 113 61 80 
0.223001 0.546067 4.50891 126 81 95 
0.631604 0.525561 4.34799 91 44 53 
0.784573 0.519357 4.2912 101 52 64 
0.0114614 0.56023 4.58629 84 51 67 
0.267122 0.551084 4.49092 105 57 70 
0.356897 0.549637 4.45327 83 47 61 
0.490834 0.546929 4.40408 75 42 48 
0.578746 0.540468 4.35998 82 42 50 
0.707543 0.54067 4.31301 78 43 56 
-1.61922 0.677017 5.19255 80 40 49 
1.38839 0.592358 4.52521 80 58 75 
-1.36619 0.671994 5.09742 87 49 54 
-1.25901 0.66866 5.05172 107 62 75 
-0.692753 0.653538 4.85229 91 49 67 
1.0902 0.62953 4.63066 48 34 49 
-0.204766 0.637584 4.67148 102 55 69 
0.0542697 0.624159 4.56481 133 86 97 
0.102682 0.448385 3.28048 134 87 100 
0.499718 0.599623 4.38524 127 74 83 
0.0785714 0.45682 3.30246 80 39 48 
-1.26448 0.70278 5.04836 95 50 60 
0.391056 0.618922 4.42956 107 53 59 
0.455131 0.615941 4.40548 106 54 59 
0.353686 0.624045 4.44788 94 45 58 
0.490206 0.616532 4.39833 88 39 50 
0.214256 0.640749 4.50288 98 62 79 
0.496595 0.656377 4.40614 95 50 61 
-2.52754 0.942038 5.96231 122 112 140 
1.47338 0.725973 4.47354 84 64 78 
-2.78376 0.994724 6.05682 140 161 198 
-2.79925 1.00655 6.05742 102 122 164 
1.26757 0.779977 4.53895 76 62 79 
1.60597 0.83391 4.42212 83 59 79 
1.21133 0.868363 4.57346 118 123 148 
-2.80314 1.16433 6.01733 96 120 155 
0.568468 0.843052 4.32335 83 40 47 
1.09974 0.897504 4.60988 128 122 145 
-1.11225 0.818019 3.92125 82 42 53 
-2.64845 1.28031 5.94061 88 74 96 
-2.7486 1.32612 5.92354 113 104 120 
-1.05291 0.887759 3.89238 75 37 50 
1.32503 1.04026 4.50251 106 106 127 
-0.0626708 0.859225 3.70545 119 64 84 
-0.53971 0.873315 3.69949 93 46 60 
1.46142 1.05053 4.44561 69 48 70 
-0.108352 0.876693 3.68048 119 65 86 
1.85987 1.02856 4.28615 68 52 64 
1.76473 1.04 4.32262 73 75 93 
-0.89204 0.920939 3.81947 85 42 54 
1.62427 1.05942 4.38916 96 91 108 
1.25405 1.09983 4.52092 117 102 118 
-0.703325 0.915465 3.75662 109 62 81 
1.65744 1.06578 4.3608 77 53 69 
0.566052 1.05785 4.30499 62 38 42 
0.0116739 0.918452 3.731 117 65 84 
-0.572502 0.914113 3.70131 89 47 64 
-0.81924 0.938573 3.79224 111 59 81 
-0.539478 0.914926 3.6977 92 49 72 
-0.0923389 0.930828 3.6854 116 63 79 
-1.25474 1.00947 3.96032 72 39 58 
-0.339739 0.924742 3.61684 105 53 67 
1.03718 1.19965 4.51345 61 59 73 
1.44464 1.16763 4.34494 88 70 92 
-0.0920177 0.994062 3.67345 111 58 73 
-0.338734 0.985435 3.60587 83 46 63 
1.81071 1.17154 4.2032 48 31 42 
1.97701 1.15646 4.13279 60 45 61 
1.84553 1.18648 4.19853 132 151 212 
1.9457 1.17243 4.14863 126 155 209 
1.95223 1.16894 4.14062 117 153 214 
1.95609 1.16957 4.13761 92 110 168 
1.80234 1.19184 4.20817 57 39 51 
1.8498 1.18579 4.17852 73 60 124 
1.93671 1.18005 4.15723 69 61 120 
1.81283 1.19812 4.19596 19 29 61 
1.98252 1.18061 4.12255 25 34 41 
1.81622 1.20513 4.19162 118 143 198 
1.97335 1.19715 4.13581 126 145 205 
1.88623 1.23164 4.15494 159 176 245 
1.89463 1.23975 4.15624 94 83 160 
1.79605 1.27369 4.19959 72 48 61 
1.9767 1.26685 4.12658 135 140 208 
1.85818 1.2871 4.16796 67 52 130 
1.82685 1.29571 4.1678 11 22 43 
1.95585 1.28344 4.13175 142 162 221 
1.95917 1.28499 4.12779 139 150 210 
-1.09095 1.23061 3.82038 106 124 146 
-0.806561 1.2059 3.5778 32 51 123 
-0.924694 1.20945 3.57555 56 52 80 
0.649339 -1.47243 5.00638 99 81 102 
0.525146 -1.47501 5.04231 108 79 92 
0.59733 -1.44824 5.01214 80 70 91 
1.26778 -1.35227 4.74369 87 62 84 
0.649799 -1.39862 4.9812 111 85 109 
1.18617 -1.32949 4.77398 97 69 89 
0.570807 -1.39129 5.01074 103 70 91 
1.07725 -1.34205 4.8327 86 61 80 
1.51149 -1.28852 4.63802 69 45 66 
1.49943 -1.28622 4.6439 125 109 135 
1.51314 -1.27523 4.65385 83 69 94 
0.732984 -1.34778 4.96123 91 64 83 
0.667489 -1.34715 4.97335 102 73 94 
-1.37178 -1.55721 5.7673 78 61 82 
0.611089 -1.35101 5.00128 97 83 103 
1.09644 -1.30161 4.82123 97 76 98 
-1.27229 -1.54832 5.74846 77 63 87 
-0.566031 -1.34419 5.00559 69 38 55 
1.2908 -1.26573 4.72351 88 73 89 
-1.68383 -1.57264 5.90348 111 97 115 
-1.26982 -1.49657 5.71834 77 60 79 
1.30338 -1.21809 4.73052 86 64 84 
0.454116 -1.2964 5.0531 121 89 108 
0.515598 -1.28583 5.02328 135 116 136 
0.571785 -1.2801 5.0191 64 53 70 
1.77809 -1.14794 4.52697 99 77 105 
0.738409 -1.21727 4.94748 95 69 75 
0.668138 -1.2023 4.97803 79 54 66 
1.1682 -1.11751 4.77388 88 77 94 
1.29033 -1.10536 4.72185 50 30 45 
1.27433 -1.10285 4.72835 103 77 97 
1.4017 -1.08888 4.66728 112 99 122 
1.37986 -1.07978 4.67651 98 72 93 
1.39775 -1.06378 4.66581 111 94 109 
1.73422 -1.02462 4.51904 98 71 86 
-2.52128 -1.38511 6.16178 93 76 95 
0.703805 -1.05992 4.93948 81 61 80 
0.814853 -1.02371 4.89286 117 98 114 
-2.19537 -1.25166 6.06698 70 51 58 
-1.83825 -1.20587 5.9299 57 46 67 
1.59652 -0.918207 4.57231 62 49 59 
-2.34081 -1.21491 6.08958 92 71 91 
1.08147 -0.954741 4.78709 97 73 89 
1.10445 -0.942674 4.77754 88 67 79 
1.11419 -0.934883 4.7731 118 96 109 
1.06368 -0.907753 4.78797 88 58 71 
-2.47815 -1.15911 6.13523 133 106 121 
-2.22397 -1.1429 6.04573 56 43 53 
-2.23425 -1.11978 6.04937 129 108 115 
-0.657614 -0.929315 5.01643 58 27 42 
-0.128205 -0.892222 4.8162 69 33 43 
-0.0990173 -0.890157 4.80511 123 75 88 
-0.160803 -0.888975 4.81628 78 40 52 
0.6501 -0.914146 4.95447 98 70 85 
-0.777171 -0.880006 5.0586 92 64 79 
1.69573 -0.777144 4.52527 85 61 83 
-1.14884 -0.893546 5.22743 85 35 44 
0.69991 -0.844167 4.93803 112 83 104 
-0.725064 -0.82819 5.06656 76 43 55 
1.26606 -0.723294 4.68466 79 63 73 
-2.3178 -0.932357 6.06583 54 45 62 
1.12162 -0.70822 4.74389 68 49 75 
-0.481511 -0.740436 5.06882 69 38 46 
1.11217 -0.696655 4.76447 92 83 105 
0.633167 -0.706544 4.93834 119 96 112 
-1.62823 -0.815302 5.78651 68 53 68 
-2.32898 -0.80072 6.07151 50 45 65 
-0.343712 -0.625279 5.00452 70 35 41 
1.73436 -0.559491 4.50208 62 46 59 
-1.54611 -0.70597 5.75657 67 48 60 
-0.595482 -0.602415 5.09946 73 32 44 
-0.416107 -0.593381 5.01561 115 69 79 
1.11851 -0.558255 4.74581 105 106 125 
-0.574731 -0.590965 5.08474 64 31 39 
0.817424 -0.564879 4.86428 78 63 80 
-1.42549 -0.622995 5.70673 90 75 94 
-1.76873 -0.63416 5.83418 131 119 137 
-2.02135 -0.615648 5.91938 54 51 76 
0.739739 -0.488367 4.85828 143 118 137 
-1.09652 -0.477656 5.27926 70 42 52 
-1.08046 -0.477812 5.2783 99 67 80 
0.189886 -0.44 4.89554 67 33 39 
0.254971 -0.426343 4.87349 72 37 43 
-1.36972 -0.49307 5.68902 79 56 65 
0.243938 -0.404401 4.87254 79 43 54 
0.928359 -0.391339 4.79527 106 99 122 
-0.42931 -0.366691 4.99427 155 140 123 
1.94283 -0.314153 4.36986 115 94 113 
-0.491144 -0.347517 5.05145 39 18 17 
-0.351068 -0.344152 5.00279 50 26 28 
1.06599 -0.303505 4.71857 83 59 73 
1.09685 -0.238778 4.6989 88 57 67 
-0.118279 -0.24243 4.8622 76 33 42 
-0.0558138 -0.241571 4.83085 84 42 52 
-1.7883 -0.280751 5.81315 78 64 90 
-0.00497205 -0.204574 4.82981 84 41 50 
-0.0158562 -0.193705 4.8289 97 47 56 
-0.527513 -0.199177 5.03663 141 116 108 
0.261317 -0.18851 4.85487 62 32 38 
0.318212 -0.186431 4.83223 65 30 36 
1.2136 -0.176326 4.65906 82 60 79 
-0.341935 -0.177086 4.98013 171 152 123 
-2.49468 -0.175696 6.05382 72 57 76 
1.20622 -0.135646 4.65762 136 118 133 
-2.4471 -0.17127 6.04866 68 60 79 
-0.30822 -0.139831 4.97968 201 190 164 
0.299923 -0.13582 4.83005 143 95 111 
-2.45674 -0.166488 6.05004 60 56 79 
-2.08619 -0.160607 5.9022 107 89 108 
-2.45222 -0.152339 6.05014 108 102 129 
0.27557 -0.12166 4.84854 81 38 47 
-2.21302 -0.130786 5.9571 59 48 62 
0.256427 -0.0995047 4.83107 74 38 48 
-0.372346 -0.0990857 4.98661 39 19 21 
1.20781 -0.0825816 4.65029 82 57 76 
-0.434054 -0.0792035 4.92156 191 181 158 
-0.388846 -0.0757842 4.91106 176 164 150 
1.20127 -0.0719739 4.65201 128 106 129 
1.71559 -0.0678527 4.43621 111 102 123 
-0.399026 -0.0674471 4.90023 221 211 184 
-0.0815544 -0.0666152 4.85306 89 43 50 
-0.0158052 -0.0627699 4.82033 84 37 47 
1.2115 -0.0615944 4.66448 72 52 74 
1.71601 -0.0595775 4.4546 70 46 62 
-0.41427 -0.0610782 4.90625 148 124 101 
-0.0522018 -0.0594632 4.83642 64 26 37 
-1.10258 -0.061358 5.36747 93 48 58 
-0.344902 -0.0490946 4.91611 167 153 132 
-0.15909 -0.0483657 4.88244 96 49 59 
-0.774391 -0.0440352 5.11774 73 30 39 
-1.12789 -0.0424513 5.37273 78 37 45 
1.27252 -0.0335529 4.63143 94 71 87 
-0.69275 -0.0294416 5.08303 76 36 48 
0.134487 -0.0197043 4.88481 92 45 51 
1.50764 -0.00523847 4.53263 64 48 61 
1.52167 -0.00534147 4.52372 43 30 48 
-0.312181 -0.00103324 4.98364 78 57 40 
-0.323671 0.0125445 4.98751 105 87 65 
-0.0557607 0.0210946 4.83114 86 36 47 
-0.342197 0.023671 4.98444 129 113 89 
-0.324793 0.0254837 5.00494 73 49 39 
-0.106927 0.0232972 4.84637 82 36 39 
-0.338348 0.0585015 4.98306 177 162 131 
-1.02321 0.0938354 5.25014 92 43 52 
-0.311965 0.0885845 4.98042 108 86 75 
-0.788194 0.105468 5.10776 80 37 47 
-0.114481 0.100703 4.85847 83 36 46 
0.358475 0.0988207 4.78766 61 22 27 
-0.919388 0.120898 5.26564 59 22 29 
0.443612 0.108874 4.77468 59 24 32 
1.12776 0.117936 4.68062 83 64 79 
0.351161 0.130993 4.786 67 28 33 
0.427278 0.129447 4.75262 60 24 28 
-0.452012 0.148037 4.83718 156 149 153 
-0.437687 0.148059 4.83955 216 209 203 
1.26107 0.140202 4.61501 119 107 125 
1.3064 0.140177 4.59152 88 65 81 
-0.937484 0.165556 5.27845 61 27 30 
-0.417465 0.149475 4.77465 144 135 134 
1.33491 0.142788 4.59464 76 58 76 
1.28046 0.150927 4.62243 69 53 69 
1.7551 0.143785 4.4099 104 91 111 
-0.390412 0.160627 4.79495 110 99 104 
1.26053 0.157686 4.61305 130 127 141 
-0.368993 0.167719 4.79757 192 184 165 
1.46153 0.161271 4.53757 87 64 80 
1.72646 0.1616 4.42994 141 133 156 
-0.462906 0.182219 4.79949 56 52 67 
-0.445602 0.180977 4.76869 88 80 91 
-0.442039 0.187998 4.76893 168 162 151 
1.51956 0.183678 4.4974 121 94 114 
-0.39023 0.202944 4.79287 127 120 110 
-0.257733 0.226273 4.80694 101 73 68 
-0.239752 0.226312 4.80852 193 182 176 
-0.110073 0.238315 4.82596 77 30 40 
-0.0519542 0.23707 4.8174 63 22 31 
-0.0157002 0.236166 4.80077 67 24 34 
1.55075 0.224542 4.48985 130 113 131 
0.319621 0.242574 4.79823 88 37 44 
-0.211611 0.255666 4.82616 105 89 92 
-1.03146 0.284459 5.29275 63 34 47 
1.24805 0.267801 4.60539 85 62 86 
1.76294 0.255334 4.40471 73 57 78 
0.728057 0.269683 4.51392 72 40 48 
0.529176 0.297765 4.7059 72 31 39 
-1.24221 0.353605 5.37878 58 29 41 
-1.17867 0.352698 5.36553 62 29 40 
0.730138 0.297772 4.52682 51 29 38 
-1.4616 0.354273 5.32401 74 33 42 
-0.734657 0.33567 5.05671 92 44 56 
-2.27764 0.448711 5.92765 29 24 45 
-2.18966 0.445318 5.88277 30 34 52 
-2.25841 0.457764 5.9239 122 119 175 
-2.1993 0.454746 5.88485 118 132 196 
-2.28565 0.46381 5.914 22 35 64 
-2.28285 0.479071 5.92975 152 154 215 
0.617659 0.384104 4.50035 142 95 110 
-2.19035 0.505507 5.88486 15 29 86 
-2.23369 0.524823 5.89414 161 174 239 
1.17801 0.423441 4.60216 94 74 97 
1.17279 0.428834 4.62248 136 129 147 
1.70402 0.411367 4.40643 57 47 66 
-2.27735 0.574325 5.90405 25 43 92 
-2.19072 0.595953 5.88567 139 164 229 
-2.25378 0.622725 5.90045 151 154 205 
-2.19959 0.61881 5.86235 152 169 225 
-2.27301 0.627727 5.90433 17 16 37 
-2.18998 0.627851 5.86013 25 28 55 
1.57513 0.475104 4.43504 103 71 82 
1.18603 0.506267 4.60648 77 60 79 
-0.482434 0.536632 4.77921 131 142 182 
-0.415726 0.538038 4.75539 126 142 189 
-0.212079 0.533311 4.67682 103 58 74 
0.36101 0.51764 4.46275 89 47 66 
-0.484181 0.555656 4.76123 84 44 55 
-1.25974 0.595206 5.05976 73 41 52 
0.763642 0.504479 4.29438 66 31 39 
-0.130391 0.549276 4.64754 73 35 45 
-0.063842 0.547791 4.63266 88 45 59 
1.21068 0.545167 4.60805 114 111 132 
-1.15673 0.602183 5.02524 133 82 96 
-0.0740216 0.552677 4.61648 133 86 98 
0.278754 0.537057 4.48802 101 55 70 
-0.204981 0.5644 4.67549 86 52 65 
0.564543 0.528228 4.3769 77 34 42 
-0.0809481 0.559455 4.61603 111 65 83 
0.629149 0.526404 4.34606 89 43 54 
0.00915927 0.559343 4.5838 82 53 67 
0.229149 0.554373 4.50765 80 41 49 
-0.102113 0.573158 4.63052 132 88 102 
-0.0948333 0.57124 4.61492 134 89 106 
0.61636 0.541357 4.34803 100 53 61 
0.707039 0.540304 4.32314 73 43 58 
1.18411 0.575525 4.59898 114 97 118 
1.13405 0.599058 4.62028 62 44 58 
1.3799 0.59343 4.52708 79 55 78 
-1.39824 0.674367 5.10728 80 41 51 
-0.909777 0.656778 4.91473 116 63 79 
-0.55962 0.647824 4.79403 100 52 66 
0.0671362 0.614384 4.54672 113 62 71 
0.148492 0.610433 4.5265 111 61 73 
1.08244 0.627177 4.62225 53 33 45 
-0.536882 1.01309 7.41567 84 45 60 
0.141694 0.617167 4.52656 134 87 100 
0.499703 0.601526 4.38509 101 51 62 
0.494832 0.610229 4.40037 136 87 97 
-1.26599 0.704855 5.0544 85 46 60 
0.384191 0.61902 4.42073 118 65 77 
0.486703 0.614875 4.3867 113 58 71 
0.353716 0.627033 4.45523 86 41 57 
0.21201 0.641324 4.50308 97 65 80 
0.134818 0.664078 4.52382 75 46 57 
1.49746 0.659136 4.46179 64 56 71 
0.489562 0.653937 4.38279 69 39 52 
1.11888 0.701965 4.61502 104 104 123 
-2.67715 0.981292 6.02495 54 45 66 
1.47006 0.727082 4.47023 80 62 76 
-2.15756 0.966891 5.83209 62 56 71 
1.55312 0.746436 4.44843 125 122 143 
1.26979 0.781356 4.5469 76 62 79 
1.60251 0.832103 4.41863 93 69 86 
1.13314 0.867767 4.58846 121 119 140 
1.15156 0.864498 4.5795 125 123 145 
1.23895 0.863962 4.5718 76 63 88 
1.21166 0.869766 4.58556 112 115 139 
0.568659 0.844937 4.33301 83 40 46 
1.09521 0.898184 4.60295 112 103 128 
1.10435 0.902528 4.59784 97 85 112 
1.07789 0.966416 4.60284 103 89 106 
0.679897 0.90015 4.27497 73 41 54 
0.551895 0.935608 4.32923 92 49 61 
1.09916 1.01809 4.60504 41 26 31 
0.491392 0.970061 4.34067 79 37 42 
0.502473 0.982593 4.35192 109 67 71 
1.60821 0.990782 4.38894 100 72 88 
1.3876 1.01496 4.46428 122 102 115 
-1.01964 0.889014 3.88446 71 37 54 
-0.337778 0.851265 3.61581 97 49 60 
-0.540901 0.875911 3.70389 98 52 67 
1.45492 1.04836 4.43428 66 45 68 
1.39612 1.06963 4.47012 62 49 74 
-0.356972 0.870689 3.61761 100 54 67 
1.18462 1.09229 4.53478 101 96 130 
1.59635 1.05635 4.37453 120 105 118 
1.76713 1.04415 4.32597 84 84 101 
-0.702198 0.913981 3.74802 109 62 81 
1.25095 1.10087 4.51592 113 100 112 
1.75591 1.05127 4.31434 69 51 67 
0.59875 1.05002 4.292 98 47 54 
0.566229 1.06154 4.31447 63 43 45 
-0.540651 0.916588 3.70257 96 55 76 
-1.25379 1.00763 3.95106 87 56 72 
-0.0974736 0.986126 3.6707 140 91 112 
-0.0921829 0.996774 3.68003 97 44 62 
-0.339921 0.986082 3.60906 82 48 65 
-0.0866312 1.01035 3.67905 99 59 83 
1.97375 1.159 4.13247 33 25 40 
1.82539 1.18057 4.18373 89 129 191 
1.84628 1.18917 4.20264 148 165 227 
1.95596 1.17487 4.15396 150 181 245 
1.80029 1.19252 4.20594 62 45 61 
1.97865 1.1823 4.12309 14 22 36 
1.97032 1.18777 4.13164 20 19 72 
1.89493 1.23166 4.14326 139 170 232 
1.89662 1.24323 4.1606 59 37 117 
1.8035 1.25888 4.18402 49 30 44 
1.79342 1.27482 4.19732 71 53 69 
1.97731 1.26047 4.10753 49 29 62 
1.83304 1.29179 4.15832 84 111 162 
-1.0932 1.23206 3.82491 104 119 142 
-0.801563 1.21313 3.57552 200 216 255 
-0.905007 1.2128 3.5599 47 45 74 
1.32139 -1.41345 4.72876 75 59 81 
0.602083 -1.45174 5.0265 73 61 79 
1.2699 -1.35411 4.74358 88 63 85 
1.6736 -1.31069 4.59503 51 44 62 
1.32865 -1.34836 4.73945 94 70 85 
1.73932 -1.29414 4.55008 61 50 70 
1.4205 -1.30357 4.68993 50 46 55 
1.52438 -1.29608 4.65824 41 33 49 
1.51008 -1.27397 4.64016 78 65 91 
0.731382 -1.34596 4.95044 91 68 87 
-0.566111 -1.34811 5.01328 69 38 56 
-1.69827 -1.5697 5.89898 75 67 83 
0.829746 -1.30243 4.92458 88 66 85 
-0.830585 -1.32966 5.08243 61 35 46 
0.459385 -1.29528 5.05249 104 74 94 
1.15735 -1.20212 4.79138 122 105 124 
0.979603 -1.20993 4.85282 86 63 79 
1.33432 -1.17123 4.71424 89 74 91 
0.738253 -1.21682 4.9365 99 73 83 
1.51363 -1.1179 4.63834 63 54 73 
-1.88218 -1.41556 5.94218 74 50 62 
1.38339 -1.08148 4.67892 95 75 94 
1.40117 -1.06257 4.66785 119 102 115 
1.26215 -1.04714 4.73064 98 79 97 
-1.33382 -1.24531 5.77275 56 37 51 
0.701566 -1.05985 4.92896 86 71 90 
-1.29217 -1.21 5.70379 78 61 78 
-1.88075 -1.20085 5.93794 72 60 74 
1.42213 -0.934966 4.6401 119 99 112 
-2.3517 -1.22405 6.13241 97 76 94 
1.08361 -0.956104 4.79015 103 79 95 
1.37782 -0.920897 4.66016 74 63 85 
1.11023 -0.932994 4.75613 121 96 111 
0.903967 -0.940938 4.84617 108 78 91 
-0.170834 -0.93007 4.83461 86 44 57 
-0.108966 -0.914231 4.79935 68 36 41 
1.07512 -0.912099 4.81015 66 41 52 
-0.656414 -0.92838 5.01319 58 27 42 
-0.126731 -0.8916 4.81643 63 25 34 
-0.161776 -0.888964 4.82507 74 37 46 
0.818986 -0.900624 4.88677 116 80 94 
-0.643283 -0.91613 5.01622 125 71 84 
-1.56056 -1.02201 5.80304 78 57 69 
0.710733 -0.868559 4.9307 134 120 144 
-1.89914 -1.02033 5.91198 71 66 86 
0.698724 -0.842541 4.9088 116 89 105 
0.627817 -0.826895 4.94317 113 83 95 
-2.26231 -1.00129 6.05646 61 48 57 
-0.696491 -0.82945 5.04162 68 38 52 
1.1968 -0.777518 4.72537 80 58 74 
-0.76329 -0.828148 5.0932 78 39 48 
1.21194 -0.768113 4.71792 136 109 124 
-2.34574 -0.987584 6.10284 74 58 73 
-0.00953157 -0.786163 4.85745 66 25 28 
0.303388 -0.750047 4.74898 60 31 42 
-0.584335 -0.782976 5.09475 61 29 40 
1.2107 -0.724677 4.71311 93 84 104 
0.798845 -0.696326 4.87142 132 111 130 
-1.56291 -0.817785 5.77385 76 61 74 
-1.63244 -0.817398 5.79849 61 48 61 
0.815476 -0.68275 4.86582 80 62 82 
-0.348201 -0.624757 5.00353 58 26 31 
1.73772 -0.561456 4.50377 78 62 75 
-0.333838 -0.604259 4.9919 64 31 34 
-0.201056 -0.598938 4.93585 52 23 29 
-0.288203 -0.598917 4.98094 51 24 30 
1.12208 -0.559 4.75186 115 115 133 
-0.471366 -0.577089 5.06686 113 62 73 
-1.45806 -0.648198 5.72992 77 58 69 
0.754206 -0.537519 4.86678 110 74 86 
-1.97852 -0.648574 5.92692 65 53 67 
-0.539437 -0.522117 5.06249 72 36 40 
-2.62261 -0.62423 6.15919 60 47 57 
-0.573897 -0.49669 5.08481 71 31 39 
0.930329 -0.390406 4.80167 114 107 130 
-1.92517 -0.471077 5.86263 121 98 124 
1.40036 -0.361726 4.59632 69 55 73 
-0.494933 -0.346595 5.02826 39 19 18 
1.07621 -0.288752 4.73859 54 38 52 
-1.78567 -0.315771 5.82165 52 39 50 
1.49284 -0.247216 4.54975 67 52 67 
-1.79829 -0.305992 5.79441 120 99 118 
1.10628 -0.241007 4.72105 78 52 64 
1.38137 -0.224968 4.58833 66 46 53 
0.261847 -0.186211 4.85117 61 32 40 
1.2102 -0.177252 4.64602 87 65 84 
-0.741063 -0.177519 5.1317 53 26 35 
-2.50574 -0.177283 6.07852 72 57 76 
-2.44518 -0.17087 6.03725 76 71 90 
-1.03343 -0.151971 5.35169 64 30 38 
-0.304902 -0.140819 4.96206 189 182 156 
-2.46598 -0.154762 6.07513 106 102 130 
-2.21828 -0.131578 5.96875 49 38 52 
-2.74839 -0.122311 6.13082 60 68 103 
0.417886 -0.0845708 4.78438 73 36 43 
1.21265 -0.0823484 4.65543 61 41 60 
1.70547 -0.057481 4.46206 142 124 134 
1.72039 -0.058615 4.45902 61 45 63 
-2.04855 -0.0641417 5.86815 83 61 71 
-1.10131 -0.0606554 5.37694 69 30 39 
-0.159205 -0.0491195 4.88596 96 49 59 
-2.2712 -0.0555542 5.98067 61 50 68 
-1.12969 -0.0416403 5.37358 88 45 54 
1.19244 -0.0313716 4.65848 96 73 92 
0.13606 -0.022998 4.88851 108 56 60 
1.50661 -0.00592975 4.52954 64 48 61 
1.52008 -0.0060275 4.521 43 30 48 
-0.324874 0.012908 4.99462 106 84 63 
-0.0530165 0.0193777 4.84509 76 26 35 
-0.321763 0.0262688 5.01634 70 43 35 
0.340325 0.0252591 4.78541 87 43 58 
0.362275 0.0591459 4.79035 81 38 48 
0.375717 0.0896186 4.7965 76 31 38 
0.441982 0.105791 4.76483 100 49 56 
0.140189 0.116311 4.87835 85 35 44 
-2.0438 0.150542 5.86994 53 46 67 
-0.418725 0.128183 4.83057 99 96 100 
1.11203 0.141185 4.67365 102 70 85 
1.36039 0.139244 4.57349 101 74 91 
1.76318 0.144954 4.41522 132 115 131 
1.46274 0.162508 4.53282 79 61 75 
-0.444411 0.180016 4.77895 59 56 69 
-0.397589 0.183965 4.78598 44 29 22 
-0.33483 0.18916 4.81441 163 151 139 
-1.20569 0.219981 5.3457 91 39 50 
-0.334781 0.20192 4.81375 102 87 86 
-0.371867 0.209402 4.7883 65 45 32 
-0.260251 0.222435 4.80025 109 87 74 
-0.235381 0.225536 4.82251 204 198 190 
0.255852 0.232995 4.81957 125 75 84 
-0.643571 0.253241 5.05736 70 24 35 
-0.234341 0.241564 4.80128 58 37 42 
1.54375 0.223589 4.47156 135 118 134 
-0.197145 0.24803 4.84477 142 125 115 
-0.0615281 0.25133 4.82999 78 35 45 
-0.969381 0.282944 5.26662 75 35 43 
-0.189193 0.266362 4.86505 61 31 31 
1.22833 0.268813 4.60406 104 85 107 
-1.1758 0.350392 5.36349 56 22 32 
0.726703 0.293959 4.50553 69 38 45 
-2.28825 0.457375 5.91366 27 36 59 
-2.26045 0.457771 5.9247 116 109 165 
-2.2011 0.454334 5.88031 127 135 199 
-2.18381 0.45961 5.87655 80 117 186 
-2.16928 0.466149 5.89469 19 20 40 
-2.27017 0.477652 5.89434 144 142 200 
1.52635 0.378085 4.47966 142 114 126 
0.621133 0.383565 4.50591 150 100 116 
-2.24769 0.535721 5.89118 27 25 52 
0.612978 0.40796 4.50569 149 96 116 
1.71973 0.411025 4.40594 131 122 136 
-2.1615 0.559146 5.87371 71 55 76 
-2.18335 0.562042 5.84712 13 29 81 
-2.28469 0.59815 5.93212 148 161 222 
-2.29422 0.600551 5.90156 37 38 63 
-2.16771 0.606515 5.8763 22 18 36 
1.13086 0.479102 4.64717 98 66 77 
1.09577 0.482541 4.6405 70 56 81 
-2.25444 0.619375 5.89526 146 156 213 
-2.20824 0.618481 5.88542 154 172 239 
-2.27174 0.625264 5.89872 17 16 36 
0.0753188 0.495271 4.67181 126 66 78 
1.58492 0.476545 4.45127 95 65 77 
-2.17802 0.631061 5.84691 18 20 40 
-1.62448 0.569699 5.19006 79 45 48 
-0.463975 0.521782 4.75922 73 64 99 
-0.415642 0.520522 4.74628 117 129 177 
1.18482 0.503403 4.59637 82 65 83 
-0.415604 0.528893 4.74589 126 143 194 
-0.561506 0.542523 4.82271 118 69 81 
-1.18551 0.573798 5.01572 118 68 76 
-1.61542 0.602705 5.19101 75 53 59 
0.364901 0.516858 4.45306 99 52 66 
-1.40457 0.598654 5.12209 66 37 42 
-0.411258 0.554087 4.7453 87 44 57 
0.712674 0.504904 4.32186 99 54 62 
-0.0587567 0.544156 4.61369 114 67 78 
-0.909862 0.586198 4.94366 89 47 65 
0.210883 0.534775 4.50798 113 64 73 
0.772328 0.508638 4.28527 120 81 94 
1.36073 0.537092 4.51983 69 111 203 
-0.340494 0.567361 4.71343 93 53 69 
-0.115619 0.32083 2.66485 74 46 59 
0.567759 0.526516 4.3763 85 44 52 
0.633808 0.522685 4.3422 104 53 61 
0.00773836 0.556133 4.57452 77 45 59 
0.142515 0.553475 4.53103 73 41 49 
0.266279 0.548087 4.48257 114 63 76 
-0.100718 0.570787 4.63074 134 89 107 
0.620946 0.5408 4.36186 87 41 51 
0.708438 0.539898 4.31979 85 46 58 
1.19387 0.573273 4.58336 75 53 72 
-1.24682 0.654403 5.08129 87 44 53 
1.13042 0.597508 4.61113 62 41 56 
1.3876 0.59601 4.54116 62 48 71 
-1.3983 0.673707 5.09934 73 47 58 
0.150544 0.609767 4.52645 103 55 65 
1.07332 0.625532 4.63386 75 50 63 
-0.341353 0.64217 4.72496 105 57 68 
1.49808 0.613684 4.46771 70 57 77 
0.105658 0.62799 4.52823 92 46 53 
1.09183 0.641171 4.62377 104 98 122 
0.352344 0.624124 4.44654 100 51 62 
0.785052 0.985241 7.02807 104 51 63 
0.0118691 0.665558 4.56733 124 68 79 
1.48617 0.667195 4.46818 79 58 78 
1.11653 0.699776 4.60533 104 104 123 
1.49201 0.686807 4.4615 121 119 141 
1.14126 0.714357 4.62139 74 51 68 
1.0994 0.731176 4.6206 117 121 142 
1.2458 0.736925 4.57679 118 115 135 
1.82 0.707077 4.34187 74 55 68 
-2.79129 0.993235 6.06876 145 164 203 
1.25674 0.760627 4.57157 127 123 146 
1.26563 0.760354 4.54427 93 79 104 
1.13924 0.868965 4.59639 120 120 141 
1.23045 0.85918 4.55057 69 57 80 
1.21379 0.868849 4.58064 118 123 148 
1.10125 0.90083 4.61083 130 125 148 
-1.1272 0.797091 3.91741 86 44 54 
-1.01697 0.7975 3.88782 81 39 51 
-0.939543 0.795501 3.85751 87 42 54 
0.487264 0.903028 4.36215 70 35 40 
-2.79558 1.25285 6.01856 151 168 202 
-1.11076 0.816135 3.90946 67 35 51 
-0.090213 0.783748 3.6901 108 59 73 
-0.0604336 0.785715 3.70125 99 58 76 
-1.01631 0.885227 3.87189 78 39 55 
1.15637 1.0476 4.56588 94 87 103 
-1.23598 0.927319 3.96034 94 50 65 
1.4087 1.04463 4.4653 105 101 123 
1.45499 1.04636 4.43449 78 53 74 
1.8678 1.01685 4.30755 77 53 67 
1.38126 1.06022 4.48078 92 77 111 
-0.0405284 0.881788 3.70682 106 53 71 
-0.0770347 0.888509 3.69581 154 112 131 
1.62221 1.06003 4.37869 120 105 118 
1.25168 1.09604 4.50876 117 102 118 
1.7648 1.0528 4.33133 62 48 64 
1.2496 1.10963 4.53069 71 56 67 
-0.109681 0.903434 3.67152 117 62 77 
0.567122 1.05983 4.31143 62 40 43 
-0.57481 0.913623 3.70396 85 45 63 
-0.178038 0.899979 3.64898 103 63 86 
-1.05074 0.982087 3.88309 113 66 82 
-0.339594 0.924852 3.61755 105 53 67 
-1.03497 1.01586 3.87623 137 100 118 
1.45103 1.17156 4.35069 77 64 82 
-0.338501 0.984249 3.60528 92 49 65 
-0.0866295 1.00731 3.67703 101 57 77 
1.80876 1.19267 4.21521 43 26 38 
1.95523 1.17023 4.13917 139 165 223 
1.85082 1.18752 4.17302 23 21 90 
1.93228 1.18396 4.16213 18 22 60 
1.97319 1.19138 4.14545 28 19 93 
1.97639 1.19824 4.14436 105 126 193 
-0.286879 1.05496 3.56962 132 81 98 
1.81018 1.26448 4.20082 72 50 62 
-0.277675 1.08572 3.53471 141 90 105 
1.99424 1.27013 4.13486 29 17 40 
1.86316 1.28338 4.16695 53 34 103 
1.84984 1.29075 4.17934 144 157 225 
1.934 1.27731 4.1336 14 22 59 
2.00833 1.28056 4.1332 23 25 36 
1.85187 1.29967 4.18392 143 157 213 
1.98054 1.29951 4.14518 16 15 33 
1.31913 -1.4124 4.7298 77 53 75 
1.26657 -1.35323 4.74399 95 73 94 
1.67871 -1.31532 4.60673 64 62 76 
1.32151 -1.34322 4.72003 99 73 88 
1.74569 -1.29711 4.56025 54 43 62 
0.573734 -1.39352 5.01639 100 71 93 
1.39896 -1.30333 4.70561 53 40 59 
1.75168 -1.25973 4.5502 75 58 77 
1.51119 -1.2749 4.64364 81 68 94 
1.29163 -1.26638 4.72294 84 71 88 
0.457152 -1.29366 5.04812 108 76 97 
0.521976 -1.29102 5.04071 135 113 134 
0.567227 -1.27851 5.00709 71 60 77 
0.451655 -1.28263 5.04772 98 74 95 
0.971287 -1.20752 4.83322 92 70 83 
0.672475 -1.20631 4.98348 84 59 65 
1.48806 -1.11292 4.6342 117 106 127 
1.40926 -1.0917 4.67231 124 109 134 
-1.77699 -1.36867 5.9204 80 67 86 
-2.52329 -1.38889 6.1786 76 60 79 
1.40319 -1.04509 4.66895 62 46 57 
0.938693 -1.05953 4.82699 101 79 94 
-1.31353 -1.2344 5.71652 63 43 50 
0.703666 -1.06121 4.93728 79 67 87 
-1.29715 -1.21907 5.72563 87 71 82 
-1.44662 -1.22345 5.77833 76 52 65 
-1.88288 -1.20251 5.95142 71 59 71 
1.42544 -0.933867 4.64272 120 100 112 
1.50934 -0.924365 4.62269 53 39 52 
-0.0951362 -0.922923 4.80099 137 83 99 
-2.23576 -1.14711 6.07041 54 44 52 
-0.169178 -0.904909 4.83638 127 71 89 
-0.654634 -0.934202 5.02754 68 36 47 
0.649761 -0.910944 4.93361 96 65 80 
0.824716 -0.905252 4.89466 117 79 91 
-0.163715 -0.88726 4.83127 77 41 48 
-0.659669 -0.896583 5.024 66 36 41 
0.914509 -0.842122 4.83721 98 73 95 
-1.84897 -1.01411 5.90528 51 44 59 
0.700836 -0.845817 4.91751 109 82 99 
1.70215 -0.780517 4.53653 83 60 82 
1.60451 -0.735882 4.56611 70 49 70 
-0.275969 -0.762325 4.97026 62 26 33 
0.698975 -0.703819 4.90419 87 60 82 
-0.353812 -0.692338 5.00628 92 46 52 
-2.33216 -0.799669 6.06507 64 60 83 
-0.358869 -0.625735 5.00216 69 33 40 
1.11089 -0.585369 4.71526 74 64 81 
-0.199585 -0.59787 4.94462 48 21 27 
-0.353432 -0.59935 5.0015 111 63 71 
-0.592331 -0.599597 5.10142 62 29 37 
-0.488521 -0.595367 5.05496 67 29 39 
-2.05428 -0.617356 5.96399 112 102 126 
-0.544301 -0.513069 5.06571 65 30 34 
