ply
format ascii 1.0           { ascii/binary, format version number }
comment made by Greg Turk  { comments keyword specified, like all lines }
comment this file is a cube
element vertex 1281
property float x
property float y
property float z
property uchar red
property uchar green
property uchar blue
end_header
0.181708 -0.957841 5.27984 107 75 86 
9.31149 -3.14777 18.728 121 116 174 
1.25192 -1.11351 6.64249 85 67 84 
9.49975 -3.17691 18.9632 98 110 171 
9.21407 -3.10806 18.6969 171 188 237 
8.89284 -3.05346 18.4192 200 217 254 
1.26476 -1.09214 6.62267 86 71 98 
8.80685 -3.03583 18.3842 185 185 209 
-1.17216 -0.745756 4.56461 66 53 66 
-1.09435 -0.753197 4.61014 112 90 107 
9.73593 -3.0985 19.0534 191 205 242 
-1.22684 -0.722699 4.51356 77 63 90 
-1.12588 -0.736622 4.59748 64 48 74 
0.257367 -0.848999 5.34041 105 72 81 
1.71383 -1.1113 7.01795 80 56 77 
10.2038 -2.98976 19.1928 89 58 85 
9.27323 -2.88108 18.5807 168 178 220 
6.56258 -2.59293 16.9856 126 143 193 
6.63032 -2.57877 16.9145 144 154 205 
0.164672 -0.789485 5.263 97 74 78 
7.40394 -2.60105 17.4136 131 128 174 
7.28695 -2.60248 17.4727 177 195 238 
9.94104 -2.77871 18.8989 129 132 177 
-1.82171 -0.583886 4.00097 108 101 120 
8.99981 -2.69528 18.497 129 140 190 
7.1458 -2.49381 17.264 151 154 182 
1.26252 -0.946667 6.61089 82 59 76 
7.23977 -2.45031 17.1028 107 73 80 
9.50933 -2.67206 18.679 139 142 193 
7.15005 -2.43394 17.274 101 109 153 
7.23396 -2.44272 17.372 160 160 167 
7.41107 -2.44832 17.4818 110 68 83 
7.53034 -2.47284 17.6326 188 190 189 
8.21018 -2.50201 17.8627 131 115 115 
7.32575 -2.42648 17.383 196 191 195 
7.33964 -2.40245 17.3904 156 138 139 
9.31288 -2.51972 18.6366 129 123 161 
7.2588 -2.2939 17.353 189 190 232 
-1.9221 -0.50764 3.92487 36 34 51 
-1.31477 -0.54679 4.42877 68 48 59 
-0.227014 -0.567197 4.896 71 37 46 
9.93692 -2.1605 18.7572 92 65 87 
-1.95295 -0.437505 3.88346 69 55 79 
-0.0129416 -0.576464 5.11644 175 164 147 
-1.81714 -0.450929 4.01864 60 45 61 
6.51093 -1.89357 16.8792 161 191 231 
10.1427 -2.12976 19.1004 76 54 77 
9.07563 -1.99522 18.4393 130 136 187 
10.3351 -2.03469 19.147 107 94 74 
9.40307 -1.96677 18.7235 112 125 173 
0.379657 -0.565073 5.41475 78 46 61 
6.39924 -1.74318 16.671 152 165 208 
-1.43863 -0.445898 4.33403 121 110 134 
8.67392 -1.87221 18.2259 107 110 159 
-1.53457 -0.43088 4.22474 78 61 80 
0.0159719 -0.524568 5.14032 159 145 119 
10.3807 -1.95162 19.1648 83 83 71 
8.98372 -1.86671 18.4166 103 114 161 
1.65385 -0.696058 6.95064 88 73 98 
-0.908332 -0.41817 4.19151 55 20 24 
6.82823 -1.69877 17.0648 111 122 163 
-0.604293 -0.465755 4.77636 88 45 55 
-0.543101 -0.472944 4.84403 69 35 49 
8.6607 -1.76398 18.0794 129 153 192 
0.00307429 -0.485779 5.1032 154 137 118 
8.62706 -1.72326 18.1277 145 153 189 
6.87219 -1.60966 17.1479 185 198 242 
7.35973 -1.63301 17.3863 174 183 221 
9.05017 -1.73457 18.4579 165 179 224 
7.49109 -1.63485 17.5411 149 160 196 
9.19152 -1.72437 18.51 153 169 208 
9.09272 -1.70947 18.4742 127 136 186 
-0.585498 -0.438171 4.79378 72 33 44 
8.06339 -1.62708 17.8352 170 180 222 
8.67503 -1.64785 18.1567 104 115 163 
-1.37378 -0.394994 4.36952 33 28 42 
6.75205 -1.52932 16.954 157 169 217 
10.0753 -1.71266 19.1317 92 90 131 
-0.0255559 -0.451563 5.07756 159 142 120 
-0.00649941 -0.453084 5.09303 122 96 79 
8.67934 -1.54288 18.166 150 163 212 
0.00627695 -0.429441 5.09289 160 144 118 
-0.5429 -0.40199 4.81518 60 27 36 
6.76136 -1.42271 17.0849 138 135 159 
9.40158 -1.53606 18.6046 115 124 165 
9.60086 -1.55562 18.8355 113 131 182 
-0.631624 -0.378904 4.75675 72 32 40 
0.73661 -0.466158 5.91198 80 45 63 
7.04334 -1.35953 17.2781 172 182 225 
6.5674 -1.28818 17.026 67 45 59 
6.64942 -1.29813 17.155 70 50 63 
8.51833 -1.36259 18.1136 176 202 239 
10.1779 -1.42821 19.1897 86 87 127 
0.341686 -0.40065 5.40429 90 53 70 
8.47635 -1.33963 18.0966 125 130 177 
8.80755 -1.33622 18.2429 125 108 133 
6.47638 -1.2264 17.0108 46 51 80 
1.91532 -0.511629 7.16344 64 51 64 
9.8747 -1.3441 19.0454 102 91 113 
-1.56346 -0.289788 4.20286 41 35 50 
0.64079 -0.401424 5.81517 81 37 48 
9.73174 -1.30413 18.9064 56 37 54 
0.736779 -0.3935 5.91334 61 30 38 
9.73206 -1.25508 19.1165 76 88 114 
0.742575 -0.37755 5.90054 90 55 66 
7.82875 -1.12262 17.8602 173 189 225 
6.87108 -1.05676 17.0653 143 144 193 
8.45842 -1.11096 18.107 160 177 213 
1.2414 -0.369146 6.04443 68 33 40 
8.62018 -1.06831 18.1852 108 122 167 
7.3868 -0.999269 17.3734 128 135 183 
10.0939 -1.08836 19.0311 95 89 133 
8.08883 -1.00257 17.7928 127 136 185 
10.3305 -1.05148 19.2726 130 134 170 
10.2595 -1.01295 19.0735 82 84 122 
9.65622 -1.00499 19.0849 70 64 109 
9.56115 -0.988244 18.8272 56 65 105 
9.35111 -0.973657 18.8079 170 179 228 
-0.672104 -0.241924 4.70667 74 35 43 
9.06133 -0.949727 18.6958 76 96 142 
9.22371 -0.942491 18.7642 73 95 144 
7.39716 -0.795361 17.3211 146 166 201 
-0.559433 -0.213233 4.70097 70 29 39 
7.39598 -0.789694 17.4463 172 188 224 
-1.75757 -0.180938 4.04392 64 58 82 
-0.131635 -0.22237 5.00117 71 27 38 
0.0681464 -0.228249 5.19018 103 74 58 
0.391813 -0.232198 5.44227 63 31 36 
10.3393 -0.809992 19.2665 109 109 143 
-0.683511 -0.192737 4.704 60 24 31 
7.75354 -0.710228 17.6888 181 193 238 
10.089 -0.768108 19.0671 97 92 135 
-0.131444 -0.185938 4.99368 59 16 26 
9.57214 -0.699679 18.9188 86 81 123 
9.64542 -0.694554 18.9462 68 90 138 
0.825341 -0.215122 5.9917 63 24 36 
8.86139 -0.655179 18.3308 181 188 224 
-0.750954 -0.158212 4.64745 52 18 24 
-0.742543 -0.143389 4.64949 105 57 63 
0.128916 -0.155541 5.02504 165 157 146 
-1.46666 -0.129901 4.27363 45 36 51 
-0.179954 -0.14827 4.95215 84 47 59 
8.88252 -0.542042 18.3507 78 78 117 
9.26171 -0.556094 18.8176 70 89 129 
9.48093 -0.543065 18.7385 82 83 118 
9.6542 -0.549684 18.9636 56 66 101 
9.62223 -0.544622 18.7852 163 187 221 
0.0508675 -0.144944 5.08705 178 173 153 
0.189109 -0.141892 5.03568 149 145 136 
7.06129 -0.476566 17.1118 149 168 203 
0.0945892 -0.136811 5.04023 153 144 129 
0.170247 -0.137195 5.03752 76 68 69 
7.05452 -0.469276 17.2525 175 187 227 
0.15044 -0.112982 5.00808 149 143 129 
0.162948 -0.112976 5.00699 100 91 84 
8.17777 -0.390893 17.89 163 175 220 
8.13581 -0.363394 17.8716 128 132 179 
-0.912307 -0.0851146 4.51003 64 25 28 
10.3228 -0.363434 19.1688 85 79 119 
9.61127 -0.320286 18.9727 75 67 106 
9.56951 -0.297489 18.9606 141 160 203 
0.206686 -0.073978 5.00316 79 71 82 
0.191086 -0.0693187 5.00481 108 99 102 
1.66701 -0.0958956 6.95111 125 104 120 
9.09463 -0.258763 18.6204 91 88 127 
0.131678 -0.0662359 5.01009 67 53 44 
9.429 -0.233468 18.752 55 75 114 
1.88903 -0.0714986 7.11518 71 49 61 
0.0784021 -0.0475551 5.01385 67 54 48 
1.73408 -0.0641332 7.01109 127 114 131 
1.93274 -0.0575472 7.16158 111 97 116 
9.39179 -0.144192 18.748 166 195 253 
9.4356 -0.133161 18.7651 79 84 148 
10.0402 -0.111867 18.9526 96 90 136 
8.64454 -0.091674 18.1408 104 120 161 
9.2924 -0.098915 18.6194 82 73 138 
-0.0976065 -0.0232215 5.02347 61 30 40 
0.0909534 -0.0226198 5.01334 41 29 29 
7.07701 -0.0693668 17.15 181 202 243 
7.76403 -0.0680944 17.5624 174 191 234 
8.44325 -0.0591338 18.0505 173 185 227 
7.03404 -0.0463512 17.1239 125 129 176 
9.44086 -0.0500992 18.7756 167 178 244 
9.48399 -0.0443223 18.9558 180 200 255 
9.52865 -0.0228139 18.8097 80 75 116 
-0.626806 -0.00412855 4.74326 76 33 35 
0.110802 -0.00472661 5.05948 37 26 30 
-0.0189396 -0.00241926 5.01801 118 100 80 
0.621126 0.0103449 5.80147 94 49 58 
9.19981 0.0327333 18.692 90 105 146 
9.562 0.0334261 18.9929 90 103 144 
9.53222 0.0331573 18.8167 104 107 149 
9.66945 0.0351087 18.9471 84 96 140 
9.35982 0.039145 18.7546 91 77 132 
-0.0943658 0.0208392 5.01863 36 17 23 
1.21148 0.0578025 6.12282 88 46 60 
7.08696 0.156758 17.1482 144 163 199 
8.55764 0.170046 18.1252 141 160 196 
1.93913 0.0730262 7.16862 69 55 75 
7.01352 0.179383 17.1262 168 180 216 
8.38619 0.189114 17.9045 160 177 213 
8.67657 0.224679 18.1842 102 122 161 
10.4426 0.265524 19.4593 119 125 160 
7.44174 0.249007 17.4003 174 192 235 
8.22501 0.253384 17.9688 177 193 234 
9.09828 0.291448 18.6758 132 151 194 
10.2511 0.294548 19.0137 72 76 113 
-0.629672 0.0757697 4.74257 69 33 45 
0.815349 0.0955439 5.97344 65 29 41 
7.41301 0.274965 17.384 120 122 172 
0.379224 0.0888301 5.40828 77 27 35 
-0.970845 0.073789 4.27071 69 37 48 
-0.644109 0.0887201 4.73949 80 40 50 
-1.69458 0.0818382 4.10003 67 55 72 
-0.20095 0.10044 4.93512 134 83 95 
0.798512 0.121172 5.95944 75 31 46 
-0.838562 0.0961569 4.57002 66 27 36 
-0.277135 0.123491 4.86208 82 34 47 
10.2921 0.508393 19.1565 106 110 139 
-1.99826 0.106228 3.83079 64 58 81 
10.1 0.542084 19.0432 95 93 130 
-1.7528 0.120108 4.02737 118 108 124 
1.11495 0.180013 6.01571 125 81 99 
9.06417 0.568158 18.5344 67 56 103 
9.23344 0.575268 18.7604 63 85 130 
9.2945 0.566566 18.6239 127 125 175 
9.59589 0.575351 18.8958 69 68 110 
1.12197 0.191336 6.01299 113 65 80 
9.72598 0.599623 18.9418 183 198 239 
7.02142 0.560362 17.0155 174 195 236 
-1.98142 0.131197 3.83531 37 43 67 
-1.93806 0.131527 3.86865 119 111 168 
-1.88229 0.133358 3.91898 126 145 206 
7.71997 0.600134 17.4876 118 123 169 
9.73063 0.661292 18.9508 183 190 230 
-0.0779368 0.176243 4.97374 101 50 59 
1.87439 0.255048 7.09351 62 45 59 
9.73183 0.68393 18.9532 186 192 232 
1.90013 0.259745 7.10674 143 129 144 
-0.0713993 0.187486 4.95263 138 90 104 
-1.97189 0.150825 3.84483 12 31 57 
-0.296463 0.186521 4.78121 149 96 112 
-0.0837063 0.193938 4.94661 105 47 59 
6.56696 0.659824 16.9427 141 111 142 
-1.96717 0.15788 3.84975 118 109 165 
-1.49142 0.174123 4.25294 79 71 84 
10.0486 0.783509 19.0587 103 73 88 
-1.86263 0.163096 3.92929 163 182 248 
8.7783 0.759822 18.2776 97 71 91 
6.84335 0.722332 17.0497 164 128 151 
6.75942 0.736853 16.9464 126 87 106 
-1.86416 0.17574 3.92731 53 80 152 
-0.0954523 0.219676 4.91388 135 87 103 
-1.9608 0.174158 3.85625 38 54 122 
1.11565 0.276152 5.91951 116 60 78 
8.66533 0.842533 18.0896 156 177 214 
7.03811 0.814307 17.1864 162 176 213 
-1.69943 0.203973 4.09325 49 35 48 
6.59783 0.90134 16.7783 132 134 181 
-1.70302 0.226149 4.07731 72 49 64 
0.64481 0.303324 5.50715 107 62 79 
-1.90552 0.222898 3.88129 159 172 234 
-1.03044 0.245727 4.10343 114 59 72 
-1.90558 0.233514 3.88156 152 161 224 
-1.97094 0.239752 3.84774 38 33 73 
1.14313 0.361371 5.81417 78 47 64 
1.97684 0.457421 7.17517 112 85 103 
0.799685 0.35576 5.52894 106 61 78 
0.671496 0.349452 5.38928 103 59 78 
0.220083 0.327667 5.02215 64 65 110 
0.200045 0.331849 4.99292 126 132 174 
1.355 0.398193 5.97792 71 39 54 
9.31113 1.2376 18.541 122 125 155 
9.46729 1.2524 18.7584 103 108 138 
0.87099 0.374197 5.56421 85 47 60 
0.26636 0.346531 5.06496 135 148 195 
0.130197 0.342558 4.95277 116 68 80 
0.200036 0.345832 4.99305 135 137 178 
1.01147 0.396469 5.68799 80 45 57 
-1.86135 0.281312 3.92665 27 29 100 
0.673498 0.390024 5.40529 70 35 50 
9.6149 1.35776 18.8176 144 155 191 
-1.95354 0.281211 3.84665 16 39 96 
0.266099 0.367985 5.05991 76 43 56 
-1.95997 0.284169 3.84052 117 120 164 
0.464009 0.38611 5.21899 90 62 75 
9.27598 1.35818 18.3796 40 48 93 
-1.96602 0.286886 3.83347 69 58 83 
8.01077 1.31601 17.6217 156 170 204 
-1.8509 0.29718 3.93575 30 41 83 
0.336692 0.387596 5.12149 83 42 58 
6.58261 1.30962 16.7932 168 183 216 
-5.68163e-05 0.382286 4.8266 89 45 58 
9.49754 1.46083 18.4973 69 49 72 
-1.98078 0.307856 3.82957 24 31 49 
-0.875846 0.329102 4.08955 76 45 51 
-0.470508 0.357809 4.44557 89 43 53 
1.35553 0.484426 5.98028 83 42 60 
-0.929159 0.328822 4.03209 62 36 47 
-1.86683 0.322413 3.90714 137 167 230 
-0.012106 0.398985 4.81275 91 53 73 
-1.87515 0.327172 3.9144 150 171 232 
-0.737298 0.350067 4.18996 99 60 71 
-1.92685 0.324701 3.86088 129 123 183 
-0.456561 0.373409 4.44557 95 44 56 
-0.109947 0.399237 4.74325 90 46 56 
-0.798458 0.351485 4.15339 60 35 36 
-1.87424 0.336721 3.91251 18 26 41 
-0.744847 0.360066 4.18822 125 84 99 
-0.945679 0.348029 4.01642 75 52 60 
0.704733 0.472412 5.41124 114 63 79 
-0.752386 0.367499 4.18645 84 52 62 
0.67369 0.474869 5.40683 73 37 52 
-0.787984 0.369169 4.16662 55 30 29 
-1.8605 0.350683 3.92479 18 22 41 
-0.672189 0.382562 4.25953 105 78 91 
0.800663 0.519104 5.5118 86 46 59 
0.0983725 0.467512 4.91096 94 46 58 
-1.4995 0.417976 4.24586 31 28 35 
0.467403 0.513437 5.22031 74 40 54 
-0.336053 0.462373 4.54751 92 46 56 
8.8092 1.83277 18.0133 75 53 67 
0.129875 0.510391 4.93941 95 44 57 
-0.455536 0.460616 4.43595 103 60 80 
-0.469244 0.477923 4.43402 98 52 67 
-0.209524 0.503945 4.64668 101 49 65 
-0.914662 0.444156 4.04618 82 53 51 
-0.545477 0.499303 4.37738 84 39 45 
1.40133 0.733571 4.47609 68 40 55 
-1.59647 0.732406 4.14576 61 49 63 
0.940452 0.741787 4.09262 75 43 56 
1.17895 0.863816 4.28908 77 40 61 
0.718739 0.808143 3.90437 55 29 38 
-0.777441 0.875748 4.12503 63 50 50 
1.39308 0.97335 4.4587 90 54 78 
1.11305 0.971072 4.23257 89 58 80 
1.47669 1.04658 4.51801 123 84 108 
-1.90775 0.914167 3.88663 66 47 61 
0.660858 0.938423 3.85199 85 47 66 
0.644227 0.958039 3.8391 72 41 59 
-0.963562 1.03203 3.95652 132 90 111 
-0.593088 1.21062 4.15566 96 117 147 
-0.637904 1.20936 4.12603 68 67 103 
-0.675362 1.2157 4.11756 68 75 98 
1.25018 1.20885 3.97754 220 225 250 
1.14653 1.20576 3.91282 49 53 123 
1.13162 1.20537 3.88682 222 230 254 
1.63511 -2.35301 6.95982 105 88 121 
9.83161 -6.34645 18.7812 98 97 128 
1.21651 -2.21274 6.61732 86 63 88 
9.79485 -6.26781 18.7914 115 111 158 
-1.09425 -1.54366 4.64647 78 67 93 
1.9534 -2.40908 7.26831 66 49 79 
8.6823 -6.00963 18.1766 166 190 232 
9.61779 -5.95058 18.5593 161 180 231 
6.71916 -5.35038 17.0434 125 142 191 
8.93506 -5.71432 18.1906 163 185 226 
6.60683 -5.26249 16.984 149 156 210 
9.25664 -5.71847 18.5051 180 204 248 
9.14529 -5.71332 18.648 159 169 215 
-0.443929 -1.44978 4.74952 90 49 58 
0.148375 -1.56037 5.11164 92 49 63 
9.07108 -5.59623 18.4398 112 106 137 
8.61433 -5.43769 18.0914 169 182 225 
8.65231 -5.41912 18.1137 111 121 169 
6.57122 -4.99564 16.8281 120 114 148 
8.99215 -5.4215 18.2505 156 182 227 
8.87261 -5.3342 18.203 138 137 181 
-1.22324 -1.32506 4.54198 111 86 99 
6.47381 -4.8938 16.7719 110 97 122 
9.36751 -5.38129 18.5605 172 185 233 
1.26749 -1.9098 6.65002 112 88 114 
1.70983 -2.00061 7.00889 79 65 88 
6.48413 -4.85025 17.0645 140 154 192 
-0.103239 -1.36488 4.84478 89 48 68 
8.68679 -5.09051 18.1575 137 121 154 
1.8948 -2.01101 7.19106 75 57 87 
9.36962 -5.18426 18.5919 109 116 164 
9.64221 -5.15656 18.6606 135 136 167 
1.40039 -1.85035 6.76085 100 80 106 
1.3427 -1.82157 6.67613 133 117 136 
9.75366 -5.09204 18.7121 126 119 153 
1.22952 -1.79833 6.63392 83 62 81 
-1.29771 -1.2004 4.45769 112 96 115 
9.8101 -5.07908 18.9849 112 108 132 
8.7292 -4.8356 18.1897 163 151 177 
9.48394 -4.90148 18.4604 73 55 71 
9.15519 -4.91096 18.5535 133 156 190 
8.76867 -4.8037 18.2146 59 45 89 
9.49433 -4.902 18.6718 23 33 45 
9.41427 -4.90447 18.8489 54 50 82 
0.461739 -1.34699 5.31381 60 34 46 
9.24103 -4.66303 18.6139 142 144 201 
9.33766 -4.65188 18.6398 95 89 146 
9.51822 -4.7088 18.8876 57 68 116 
9.43475 -4.69253 18.8893 174 194 236 
-0.567311 -1.15111 4.64895 66 40 51 
9.25885 -4.59273 18.6219 133 144 204 
9.36547 -4.57866 18.6667 100 95 150 
9.43387 -4.58567 18.6909 63 82 120 
8.95248 -4.34326 18.3385 139 156 215 
-1.18951 -1.07937 4.5699 65 55 76 
9.40015 -4.37755 18.6811 142 145 199 
-1.04182 -1.09506 4.67742 107 94 114 
0.204892 -1.23472 5.28029 66 33 48 
9.47815 -4.381 18.7232 89 96 155 
9.08574 -4.25258 18.4689 134 151 193 
1.35808 -1.54201 6.72747 128 123 146 
8.80616 -4.19346 18.2924 87 72 115 
8.91136 -4.19249 18.3389 97 95 144 
9.11087 -4.25466 18.6054 68 97 139 
9.14715 -4.1835 18.4254 132 127 185 
9.35085 -4.23232 18.6939 76 90 134 
9.52357 -4.23565 18.757 63 86 124 
9.59322 -4.229 18.7828 162 193 232 
1.60839 -1.53361 6.91242 77 59 80 
0.859761 -1.27519 5.75986 65 31 36 
0.393484 -1.14167 5.30856 93 63 73 
0.0686333 -1.09683 5.18232 65 30 44 
0.0529329 -1.0791 5.16373 86 54 69 
1.19897 -1.32947 6.57573 107 87 102 
1.34313 -1.34246 6.70323 129 113 134 
9.53142 -3.73074 18.8013 76 84 122 
9.27234 -3.62917 18.5367 65 86 127 
1.51414 -1.33292 6.83859 77 59 93 
0.127926 -1.01232 5.21599 59 27 36 
1.64563 -1.32543 6.93805 69 55 74 
-0.58813 -0.878659 4.64815 68 41 52 
-0.0434058 -0.944911 5.08072 67 34 49 
8.85087 -3.37404 18.2142 133 131 180 
9.04787 -3.42363 18.4766 85 101 144 
-0.0509595 -0.931678 5.0747 66 39 53 
0.27995 -0.983699 5.35027 69 39 54 
0.176978 -0.958791 5.27733 103 68 79 
-0.0320021 -0.912055 5.09031 118 72 85 
-0.0808412 -0.875911 5.03441 101 57 72 
1.05328 -1.11976 6.44021 128 112 138 
0.222219 -0.916586 5.3153 104 68 78 
1.35322 -1.15655 6.70331 136 117 133 
-1.51246 -0.734078 4.26955 85 68 86 
6.71218 -2.90842 16.9282 104 107 133 
6.58796 -2.79407 16.7101 128 122 161 
-1.83819 -0.654473 3.98131 93 74 95 
1.2787 -1.08014 6.63038 131 114 135 
8.73461 -2.98054 18.3149 116 103 142 
-0.569222 -0.775729 4.78257 59 27 29 
-0.160907 -0.800616 4.93637 99 49 59 
-0.507288 -0.776061 4.84423 78 42 52 
-1.22644 -0.722005 4.5161 71 57 82 
9.95431 -2.98639 18.7991 130 110 142 
1.70927 -1.1102 7.00643 83 59 81 
9.88082 -2.9576 18.8744 85 58 83 
6.46291 -2.56676 16.7766 140 163 205 
6.62026 -2.57327 16.8884 137 142 197 
6.69003 -2.58121 16.9365 127 140 185 
8.02192 -2.58049 17.5681 129 140 186 
-1.82045 -0.584458 3.99502 105 95 118 
8.54705 -2.56414 17.8094 139 160 202 
8.78509 -2.57261 18.0792 145 152 202 
9.53283 -2.64231 18.5286 124 138 183 
9.41669 -2.59052 18.4924 142 147 196 
1.24596 -0.918375 6.58902 93 77 98 
7.20844 -2.39425 17.1402 197 196 201 
9.66449 -2.59 18.5678 150 149 198 
7.37795 -2.41173 17.3882 118 95 107 
7.27436 -2.35522 17.3593 196 198 213 
1.43965 -0.906055 6.75435 74 55 66 
7.06701 -2.31037 17.2037 133 141 178 
7.24556 -2.27771 17.1674 171 184 224 
1.55827 -0.908815 6.87453 63 48 68 
9.27466 -2.43067 18.5419 139 143 180 
7.92843 -2.25845 17.3917 161 155 199 
8.05996 -2.26159 17.4504 145 127 135 
-1.91983 -0.50655 3.92201 32 27 39 
-1.31845 -0.546768 4.4374 66 46 57 
10.0307 -2.25091 18.9972 101 80 112 
-1.30848 -0.511811 4.42635 45 34 48 
-0.229106 -0.565634 4.888 64 34 44 
0.103794 -0.593824 5.18476 192 180 157 
-0.0129172 -0.574713 5.10838 175 164 147 
-1.95927 -0.432325 3.88917 102 92 119 
6.96551 -1.88411 17.0193 111 118 167 
7.22654 -1.89177 17.1837 130 134 182 
6.38101 -1.81899 16.6291 135 143 188 
8.95676 -1.97778 18.2072 133 139 188 
-0.282681 -0.525979 4.86194 57 26 37 
10.03 -1.96805 18.7292 40 32 44 
9.0826 -1.89373 18.2673 130 139 186 
-1.43759 -0.445164 4.32442 115 101 123 
-1.41842 -0.446502 4.33533 58 42 53 
0.440712 -0.556337 5.44866 71 31 41 
8.66041 -1.81661 18.1026 127 144 179 
-0.632515 -0.471857 4.74596 63 33 45 
0.419109 -0.541728 5.43391 118 88 111 
0.0178689 -0.508281 5.13058 195 184 152 
-0.230759 -0.483854 4.9239 73 35 52 
-1.40881 -0.425214 4.35609 60 46 64 
-0.6057 -0.462632 4.75941 86 47 59 
6.71632 -1.64594 16.8749 146 145 194 
8.64923 -1.70796 18.1077 106 115 154 
9.76119 -1.75022 18.4866 88 86 125 
-1.35838 -0.411022 4.38358 132 111 130 
6.87888 -1.61133 17.186 185 200 243 
7.40981 -1.63932 17.5256 173 183 220 
-0.0206093 -0.475672 5.11256 169 148 117 
9.09366 -1.65654 18.29 101 105 153 
-1.3752 -0.394128 4.37415 33 28 42 
-0.00902476 -0.453095 5.09321 131 108 88 
9.17966 -1.63392 18.3244 167 186 233 
9.85937 -1.67286 18.726 94 92 133 
-1.51822 -0.371464 4.25893 79 56 67 
-0.702555 -0.401423 4.6894 74 38 49 
-0.633584 -0.402307 4.7538 66 32 38 
-0.00905139 -0.432198 5.09326 159 140 110 
-0.227086 -0.414444 4.92434 60 34 43 
0.00242975 -0.428456 5.09294 157 141 113 
-0.544711 -0.401571 4.82071 57 26 37 
-0.00905154 -0.424607 5.09332 146 124 100 
0.747962 -0.487674 5.90225 87 53 70 
7.29984 -1.42568 17.2653 172 189 230 
9.27073 -1.51431 18.3684 127 135 174 
-0.723928 -0.382263 4.66814 78 38 49 
-0.0204365 -0.410736 5.07141 122 97 83 
0.733517 -0.464606 5.89309 81 45 62 
6.84073 -1.32368 16.838 186 202 244 
7.04232 -1.33905 17.1123 185 204 245 
-1.76276 -0.312644 4.04184 54 38 49 
7.00573 -1.30845 17.1174 133 139 185 
6.57208 -1.29015 16.9938 67 44 58 
9.77637 -1.41346 18.7291 103 89 109 
10.0539 -1.42611 18.8004 100 111 140 
-1.38755 -0.328274 4.38217 106 93 104 
-0.647478 -0.356472 4.7508 71 35 48 
-0.0205353 -0.38281 5.09393 67 39 27 
7.68933 -1.31707 17.502 130 135 180 
9.94409 -1.39711 18.7797 105 101 146 
8.67083 -1.31332 17.9828 125 103 128 
6.4584 -1.22428 16.9972 47 51 78 
-1.56731 -0.291042 4.21036 44 40 54 
0.633356 -0.400135 5.78717 87 41 53 
9.65368 -1.29398 18.7915 72 58 72 
0.668834 -0.389428 5.83106 71 36 48 
0.373361 -0.349597 5.42179 67 29 42 
6.96311 -1.10177 17.076 164 184 221 
-1.56015 -0.267717 4.19965 47 41 60 
0.743383 -0.376289 5.90108 100 62 73 
9.68639 -1.21147 18.938 130 151 182 
0.757934 -0.368806 5.91082 71 36 45 
8.32311 -1.09984 17.8459 157 175 212 
7.2156 -1.01392 17.0965 185 198 242 
7.40398 -1.02972 17.3575 179 193 238 
8.47864 -1.06093 17.9196 106 118 160 
9.982 -1.07258 18.8248 101 95 139 
10.0823 -1.03404 18.8535 131 136 172 
-0.230779 -0.264625 4.92498 72 29 39 
10.1498 -0.99479 18.8735 84 80 116 
-0.67173 -0.239915 4.69578 71 38 47 
9.36043 -0.927656 18.6572 64 78 117 
7.34402 -0.78504 17.3699 158 176 213 
8.11307 -0.799249 17.7679 144 162 203 
7.91535 -0.774861 17.5077 157 174 213 
1.85401 -0.298994 7.07668 118 101 115 
8.61476 -0.752752 18.1496 103 112 150 
-0.684284 -0.192081 4.70929 60 24 31 
7.66342 -0.71182 17.5333 173 187 231 
9.97213 -0.765489 18.8596 110 107 150 
8.34439 -0.703434 17.8915 180 196 240 
-1.69094 -0.147043 4.08864 72 52 73 
0.821833 -0.215733 5.98802 61 25 37 
-0.751654 -0.156853 4.64463 52 18 24 
8.72676 -0.596733 18.071 159 168 205 
-0.74157 -0.143315 4.64704 105 57 63 
0.130965 -0.155423 5.03118 175 169 156 
8.85611 -0.539386 18.3103 96 88 124 
-0.730543 -0.133646 4.66582 55 20 28 
9.53842 -0.540015 18.7592 53 62 87 
0.169308 -0.13714 5.04713 76 68 69 
7.77854 -0.475928 17.5851 144 163 203 
8.5657 -0.422122 18.0178 106 115 158 
0.149279 -0.113671 5.01129 142 136 122 
0.159947 -0.113245 4.99167 108 99 90 
7.25885 -0.388898 17.1685 185 198 240 
9.99591 -0.424645 18.9047 111 111 151 
7.31258 -0.353139 17.2039 151 155 201 
8.10109 -0.353272 17.8002 130 133 181 
-0.914203 -0.083782 4.51663 64 25 28 
0.036634 -0.0919045 5.05631 145 129 114 
0.205568 -0.0724662 5.00643 93 86 93 
0.134266 -0.0669021 5.01301 58 45 36 
9.2851 -0.237503 18.5073 48 61 95 
0.130026 -0.0498689 4.99482 139 132 104 
1.88059 -0.0707204 7.09673 73 50 66 
9.28849 -0.184727 18.514 185 201 255 
7.28632 -0.141582 17.203 161 179 218 
10.0491 -0.140903 18.739 102 106 138 
7.99644 -0.101426 17.5415 115 119 160 
1.81108 -0.0383667 7.03392 107 78 97 
8.60051 -0.0972385 18.0626 108 119 162 
-0.0994531 -0.0220824 5.02139 73 37 47 
0.0887957 -0.0219334 4.99794 53 39 38 
6.92373 -0.0675969 16.9796 183 201 242 
7.69127 -0.0321085 17.4472 123 129 177 
8.77632 -0.027255 18.1455 124 102 129 
9.33216 -0.0276716 18.5456 157 165 230 
9.39985 -0.0276792 18.5692 97 98 136 
0.1087 -0.00550042 5.05009 34 26 29 
8.34765 -0.0198167 17.7841 146 151 197 
9.21376 -0.014455 18.5037 158 161 212 
9.19822 0.0119372 18.5004 184 198 245 
8.7799 0.0374138 18.1529 119 100 130 
9.23399 0.0383899 18.5164 119 113 164 
9.31921 0.03851 18.5475 57 72 105 
9.40396 0.0386272 18.5773 105 107 148 
-0.48026 0.0287601 4.86553 103 54 57 
1.11365 0.0583474 6.03316 150 111 130 
8.32378 0.174296 17.7903 154 173 208 
1.13397 0.0710717 6.04483 81 40 59 
1.18576 0.0732421 6.12464 59 44 57 
9.33317 0.262437 18.5754 48 70 94 
9.48586 0.26341 18.6285 61 73 104 
-0.82324 0.0717925 4.57709 44 16 24 
1.1859 0.101097 6.12533 70 39 51 
7.35578 0.278433 17.2752 145 145 194 
-0.972299 0.0744223 4.27942 69 37 48 
-0.911612 0.0754238 4.32716 64 31 38 
-0.230011 0.0857066 4.90876 84 38 51 
-0.179529 0.0842755 4.94092 90 43 51 
8.81371 0.327051 18.1946 95 73 108 
0.960169 0.118537 6.09492 83 45 64 
-1.48507 0.0850496 4.25605 60 52 70 
0.79384 0.119789 5.94681 75 35 49 
1.1098 0.140638 6.03692 120 75 86 
0.424187 0.129701 5.4464 82 49 66 
1.10986 0.156627 6.03723 85 33 39 
0.0719339 0.138215 5.13391 56 25 30 
7.33 0.49069 17.2757 160 175 214 
9.96822 0.533879 18.7991 101 99 133 
-1.95635 0.115251 3.86072 27 24 48 
-1.75895 0.119854 4.03343 129 113 129 
1.1184 0.181714 6.03432 125 81 99 
8.8269 0.548701 18.2219 131 108 135 
9.28372 0.558626 18.5882 101 93 143 
9.04028 0.562417 18.4904 82 70 116 
9.23502 0.559835 18.3802 61 74 115 
7.66322 0.566794 17.3247 165 183 225 
-1.94754 0.130211 3.86627 28 29 57 
-1.68166 0.13789 4.08864 39 35 44 
1.12898 0.200194 5.97039 160 118 136 
-1.97946 0.131587 3.83247 34 40 64 
-1.93486 0.132933 3.86417 141 139 197 
-0.0834472 0.175688 4.9676 99 49 58 
1.05507 0.216659 6.06128 77 31 35 
9.59793 0.675877 18.7106 187 194 235 
1.89328 0.258926 7.08443 143 129 144 
6.6013 0.652749 16.8086 145 119 144 
-1.96429 0.152597 3.84789 81 69 130 
-1.8502 0.158135 3.93112 8 25 67 
-1.86031 0.161763 3.92124 161 179 247 
-1.96236 0.160882 3.8498 148 155 218 
8.62742 0.74969 17.9776 95 75 100 
1.12414 0.266848 5.94479 160 112 132 
10.0959 0.858169 19.1212 138 147 183 
-1.86716 0.178874 3.92952 24 45 112 
10.0699 0.882061 18.991 100 95 132 
10.1064 0.91272 18.8728 124 129 166 
-1.6998 0.204931 4.08801 43 31 43 
9.45939 0.93789 18.495 117 121 168 
-1.73415 0.209102 4.0606 95 84 99 
8.74054 0.931251 18.0438 120 122 170 
6.55614 0.87599 16.7901 173 187 231 
6.66108 0.880234 16.8641 170 188 225 
-1.70653 0.226402 4.08205 66 44 57 
0.634385 0.302295 5.45905 130 80 97 
-1.91031 0.228908 3.87334 27 26 67 
-1.90074 0.229801 3.8895 20 43 102 
-1.75369 0.238726 4.0283 79 69 96 
9.99895 1.1611 18.672 82 58 74 
-0.084993 0.304466 4.84434 76 35 40 
1.28057 0.379639 5.90399 104 56 74 
-1.84995 0.256573 3.94324 39 35 59 
0.676612 0.352749 5.40319 82 44 61 
0.263934 0.330552 5.04267 138 152 201 
9.96655 1.24047 18.8765 71 44 61 
0.934116 0.374025 5.60851 117 69 89 
9.14529 1.21384 18.229 125 129 159 
9.19556 1.21531 18.2472 106 107 135 
0.263923 0.339978 5.04276 138 153 200 
1.34072 0.418225 5.95443 97 59 77 
0.910967 0.404442 5.6217 140 93 109 
0.993757 0.41096 5.66016 103 67 85 
9.651 1.34647 18.5966 73 45 68 
-1.95762 0.282079 3.83484 108 100 140 
-1.95419 0.281645 3.84522 29 55 116 
0.193828 0.366041 4.99389 86 50 57 
-1.84815 0.289349 3.91441 121 141 199 
-1.8557 0.293153 3.91161 149 175 242 
0.894042 0.415283 5.56887 54 41 45 
-1.8487 0.297296 3.92797 15 35 81 
-1.95506 0.294408 3.85257 152 159 220 
-0.547722 0.334702 4.35596 63 34 45 
-1.8453 0.307185 3.94598 26 20 35 
6.51578 1.29523 16.6547 152 166 203 
-0.669765 0.33549 4.27829 66 35 51 
-0.408062 0.354996 4.47529 103 58 74 
0.324441 0.404042 5.1004 91 50 65 
0.983346 0.449356 5.6737 103 63 81 
-1.97907 0.306894 3.82622 29 36 52 
0.220968 0.404805 5.01354 68 41 52 
1.07352 0.463251 5.72259 92 49 56 
-0.927763 0.329621 4.03026 61 34 43 
-0.46482 0.366315 4.43908 110 67 75 
-0.335668 0.377716 4.54219 78 44 53 
-0.0121323 0.400777 4.82711 91 53 73 
9.46226 1.52445 18.3659 60 48 66 
-0.738907 0.35138 4.19626 84 53 65 
2.10251 0.608776 7.25539 98 67 80 
-1.93958 0.326997 3.86797 13 14 32 
-1.8755 0.337719 3.91615 10 20 32 
-0.744952 0.361877 4.19459 121 83 96 
-0.543015 0.376013 4.37066 89 54 69 
0.885066 0.477927 5.56505 94 61 77 
9.15434 1.55722 18.0847 66 39 54 
-0.345836 0.394329 4.54138 98 53 68 
-0.668767 0.373758 4.25115 59 33 40 
-1.94477 0.33969 3.84374 20 29 54 
-0.751766 0.368248 4.18023 74 46 56 
0.407153 0.456653 5.17745 76 36 49 
0.866781 0.494041 5.55507 93 61 77 
-0.872608 0.370332 4.08405 62 44 55 
-0.678031 0.392187 4.24926 66 42 51 
8.96161 1.67215 18.0251 96 65 81 
-0.00489465 0.467251 4.82742 76 41 56 
-0.2739 0.445979 4.59461 76 37 50 
-1.81727 0.400945 3.96907 69 47 60 
-0.13894 0.482326 4.69965 99 60 79 
-0.539789 0.46121 4.37127 89 52 67 
-0.919598 0.431584 4.03462 57 29 30 
-0.471397 0.478916 4.43846 94 51 67 
-0.211285 0.505935 4.65986 94 43 60 
-0.875416 0.452011 4.08309 80 42 55 
-0.800843 0.474588 4.14158 55 35 41 
-0.541307 0.499646 4.35691 68 33 44 
-1.68626 0.723354 4.08516 61 50 57 
0.989297 0.809524 4.1188 100 52 64 
-0.780447 0.879206 4.13308 71 54 55 
1.20478 0.927661 4.3027 103 54 73 
-1.90757 0.913797 3.87992 60 43 57 
0.658196 0.935924 3.84768 91 56 75 
-0.961463 1.02824 3.94613 132 90 111 
-0.593932 1.21048 4.15409 98 121 153 
-0.648748 1.21181 4.12536 95 111 144 
-0.651056 1.21383 4.06301 102 105 131 
1.24655 1.20822 3.97232 227 233 255 
1.39628 -2.27361 6.79525 114 94 122 
9.11064 -5.87042 18.6119 124 144 191 
1.655 -2.18772 7.00858 130 116 141 
9.4468 -5.81532 18.7454 115 127 181 
9.38094 -5.7893 18.7477 186 209 251 
9.21161 -5.65042 18.4095 180 206 250 
-0.439079 -1.44051 4.72007 103 63 74 
8.86352 -5.63859 18.5505 121 130 176 
9.46603 -5.69756 18.7826 121 112 156 
9.20108 -5.61671 18.6922 168 176 205 
1.36825 -2.0031 6.74768 79 69 95 
6.72543 -5.10434 17.1897 123 122 156 
8.93413 -5.51788 18.593 154 182 225 
-1.38102 -1.30252 4.39866 34 34 47 
9.12332 -5.47342 18.6714 140 139 173 
9.50913 -5.51185 18.8017 121 130 180 
6.62557 -4.99764 17.1314 103 95 126 
6.48505 -4.90249 16.9267 85 66 83 
10.0562 -5.55547 19.1994 131 148 194 
8.88905 -5.34005 18.4992 100 114 166 
9.57802 -5.38654 18.8372 178 198 245 
9.65275 -5.35239 18.8511 133 142 183 
8.77615 -5.14277 18.3332 137 128 162 
9.47965 -5.25674 18.8111 114 134 178 
9.93585 -5.3144 19.201 141 153 182 
-0.127101 -1.33156 4.83701 110 76 95 
8.97765 -5.11321 18.6488 120 117 148 
-1.29906 -1.20254 4.45829 116 97 116 
9.00376 -4.99962 18.6683 31 24 58 
9.91225 -5.11363 19.2222 87 83 100 
9.50517 -5.065 19.1006 32 31 69 
9.58293 -4.9809 19.1519 31 32 60 
0.404523 -1.36474 5.28609 49 29 40 
-1.37001 -1.1331 4.40154 113 92 111 
9.53628 -4.91748 19.1285 115 130 167 
0.396068 -1.3595 5.30069 92 53 61 
1.64357 -1.77243 6.98686 131 115 139 
0.461975 -1.3524 5.34445 50 27 38 
9.53069 -4.80777 19.1511 117 124 186 
6.58429 -4.32295 17.3086 187 200 243 
9.67145 -4.79637 19.1912 54 69 112 
9.59104 -4.75647 19.1688 161 166 210 
-0.565491 -1.15699 4.6746 63 39 51 
9.38496 -4.64619 18.8588 130 144 204 
9.80737 -4.74773 19.2534 74 81 132 
-1.22197 -1.10939 4.52949 84 65 73 
-1.02369 -1.11291 4.68841 107 86 100 
9.53966 -4.44001 18.9299 109 107 165 
-1.75919 -0.953111 4.07118 115 96 120 
9.16307 -4.30281 18.8216 71 75 128 
9.41248 -4.28783 18.9137 91 86 148 
9.47549 -4.29407 18.9373 78 100 142 
9.63473 -4.28315 18.9824 63 86 124 
1.40713 -1.51432 6.78848 142 126 143 
0.3979 -1.14487 5.32505 101 70 81 
1.96961 -1.55318 7.25978 75 66 90 
-0.967933 -0.93607 4.72528 42 31 46 
-1.10373 -0.909492 4.61628 103 83 97 
-1.34475 -0.84983 4.40984 125 99 111 
0.146058 -0.994435 5.24684 80 47 58 
-0.593141 -0.880545 4.66025 69 41 53 
1.72364 -1.32256 7.05659 140 115 129 
0.299521 -0.995146 5.36923 58 34 44 
-1.83406 -0.731777 4.00229 103 91 116 
0.225168 -0.919181 5.32781 109 68 79 
6.83772 -2.962 17.2385 104 110 138 
-0.0600286 -0.852935 5.06444 117 76 84 
1.24441 -1.11176 6.63882 78 62 76 
6.70441 -2.83847 16.9799 145 141 175 
-1.09398 -0.756099 4.60991 115 91 107 
-1.16946 -0.741356 4.54792 65 48 64 
8.72951 -2.97622 18.2696 122 120 142 
-0.569918 -0.775039 4.78264 60 28 30 
-0.668985 -0.751646 4.69104 55 19 22 
0.259874 -0.856129 5.35015 110 69 84 
9.84555 -2.94108 18.7964 83 60 87 
-0.561908 -0.752106 4.82475 60 27 34 
10.2921 -3.00347 19.3165 91 60 74 
0.160605 -0.790728 5.25985 110 93 94 
7.27883 -2.63461 17.5527 129 135 183 
8.28392 -2.66913 18.1243 128 139 184 
1.26186 -0.943385 6.60489 76 56 71 
7.16387 -2.4444 17.313 102 108 154 
7.398 -2.45219 17.4601 120 79 84 
9.6582 -2.65437 18.9276 148 161 205 
10.0796 -2.69373 19.3096 120 122 170 
-1.50601 -0.582736 4.2588 98 72 85 
-1.26375 -0.611456 4.47551 76 67 91 
7.4235 -2.39593 17.4828 200 199 213 
1.45203 -0.91229 6.79803 70 52 64 
7.31847 -2.32057 17.4207 135 117 129 
7.38316 -2.3117 17.4622 179 198 240 
7.38107 -2.32008 17.6454 181 190 236 
0.0132926 -0.606115 5.14572 128 98 101 
-0.239844 -0.571612 4.91222 111 71 85 
-1.67358 -0.474623 4.11365 108 88 100 
7.35394 -1.92835 17.4681 113 118 170 
9.99046 -2.07798 18.782 65 47 65 
1.42505 -0.73862 6.78638 75 60 78 
6.86514 -1.87852 17.2292 124 146 190 
8.64788 -1.86575 18.1674 104 107 158 
9.67721 -1.92007 18.7661 137 161 196 
-1.5341 -0.429209 4.21994 70 53 69 
-1.37545 -0.444502 4.36869 65 50 60 
9.02787 -1.88446 18.5443 101 112 155 
-1.39555 -0.439373 4.35765 60 49 66 
-0.442953 -0.494321 4.9054 56 27 33 
8.58876 -1.83352 18.1462 154 166 204 
-0.909582 -0.418567 4.18284 49 20 24 
-0.633001 -0.476818 4.77074 61 29 36 
8.65042 -1.79857 18.1729 98 107 146 
10.0385 -1.79305 18.9363 75 75 108 
-0.0190325 -0.472691 5.10485 183 163 129 
9.28718 -1.69178 18.6624 98 103 152 
9.39143 -1.67993 18.7023 162 177 217 
9.55445 -1.68578 18.7574 158 180 223 
8.7921 -1.6313 18.4704 173 190 235 
0.0131842 -0.440897 5.1041 133 116 92 
-0.699408 -0.402407 4.6966 57 28 37 
-0.00522559 -0.431683 5.10478 161 144 114 
0.00397971 -0.431726 5.10449 165 150 121 
9.32056 -1.55063 18.6952 112 121 165 
6.95026 -1.41233 17.2479 119 117 167 
-0.631935 -0.382925 4.73071 57 31 40 
8.10155 -1.45201 17.9374 164 180 216 
-0.140367 -0.394719 5.00007 74 46 60 
6.65595 -1.32251 17.0516 100 84 113 
8.6093 -1.40566 18.19 108 119 162 
-0.647035 -0.359026 4.74756 69 36 50 
-1.38667 -0.327696 4.37926 108 94 106 
10.0622 -1.41527 18.9815 91 88 131 
-1.83743 -0.294299 3.98641 75 58 77 
9.76213 -1.32573 18.8645 86 67 85 
0.637475 -0.403357 5.80093 81 35 47 
0.73601 -0.393375 5.92024 74 39 50 
1.27314 -0.405642 6.06289 68 34 45 
-1.56305 -0.268867 4.21605 46 36 51 
6.96234 -1.08663 17.2779 118 120 169 
0.763878 -0.369982 5.92938 72 36 46 
7.43781 -1.03073 17.4063 175 188 233 
8.62816 -1.08305 18.2298 106 118 160 
9.01659 -1.02057 18.6248 75 82 127 
9.77484 -0.985861 19.1561 132 152 193 
-0.277811 -0.223987 4.87983 75 33 47 
0.0696782 -0.2306 5.1981 104 75 59 
6.95393 -0.765868 17.2957 117 114 161 
-0.682894 -0.191356 4.69976 60 24 31 
10.2378 -0.781486 19.3127 84 85 124 
-0.277817 -0.188909 4.87997 71 25 38 
-0.171064 -0.174805 4.97477 73 31 41 
1.21458 -0.21801 6.15403 57 26 39 
0.170225 -0.165524 5.12026 199 193 177 
0.19061 -0.154213 5.04874 119 111 109 
0.167168 -0.140013 5.0283 83 74 69 
8.57833 -0.436437 18.0559 104 115 154 
0.148418 -0.116957 5.00759 139 130 123 
-1.45758 -0.096074 4.29747 119 81 91 
7.35995 -0.389902 17.4078 185 198 240 
-1.7404 -0.0880566 4.04507 96 79 85 
8.00169 -0.387182 17.681 183 199 243 
1.67214 -0.0996239 6.9747 125 104 119 
0.134917 -0.0675968 5.0092 48 35 29 
-0.776181 -0.057501 4.59977 82 35 43 
0.11187 -0.0628382 4.98859 133 126 109 
-0.264683 -0.0482745 4.88142 81 38 50 
0.0939032 -0.0449752 4.98997 108 97 93 
0.116887 -0.0451658 5.01078 84 64 53 
1.66355 -0.0442035 6.93887 131 113 134 
1.62902 -0.0381804 6.89862 76 49 71 
8.74608 -0.100362 18.3741 102 113 154 
0.0943287 -0.0227391 5.01251 28 19 22 
-0.0956091 -0.0183284 5.01773 55 26 34 
0.103825 -0.00931259 5.03459 28 22 26 
-0.626068 -0.000752735 4.75119 72 28 31 
9.70893 0.00128127 18.9937 109 143 191 
9.56415 0.0102369 18.9443 181 198 227 
-0.170959 0.0128156 4.97217 55 24 31 
-0.0956103 0.0174798 5.01798 32 14 18 
-0.109182 0.0219407 5.01786 120 67 76 
-0.478142 0.0251506 4.85889 111 60 64 
1.65178 0.0478389 6.88974 139 124 141 
8.44496 0.177122 18.0493 153 171 207 
1.17708 0.0697358 6.10347 60 42 54 
6.91588 0.202466 17.1628 111 112 157 
1.12886 0.0855732 6.05148 137 90 111 
-0.630216 0.0725631 4.75022 67 32 40 
1.1327 0.0987407 6.01395 102 54 68 
-0.968139 0.0737342 4.27525 65 34 42 
-1.48853 0.0846447 4.27513 56 46 62 
-0.200693 0.0978912 4.9317 135 82 99 
-1.69238 0.0845882 4.09672 57 47 64 
0.42824 0.128214 5.46685 82 49 66 
-0.276675 0.122541 4.86035 89 41 55 
-1.70868 0.113434 4.0652 98 92 113 
1.11798 0.17816 6.02232 123 78 95 
8.04621 0.528965 17.7797 107 119 158 
8.77706 0.544967 18.4045 100 115 153 
8.99338 0.545289 18.5426 85 71 106 
9.68488 0.568721 19.0475 65 68 100 
-1.95228 0.129162 3.87219 31 28 47 
-1.93953 0.131683 3.87467 121 115 176 
-1.8816 0.133345 3.91404 130 147 208 
-1.68076 0.138747 4.08651 37 33 41 
7.74178 0.614608 17.5261 115 119 166 
-1.84475 0.141493 3.9485 31 29 45 
1.06329 0.218349 6.08221 75 30 33 
1.86638 0.252916 7.06723 62 45 59 
1.9023 0.26254 7.10617 145 129 144 
-1.96432 0.1518 3.84796 81 69 130 
-1.85788 0.156728 3.95367 17 20 36 
-1.96203 0.158465 3.85029 149 157 220 
-1.86426 0.162404 3.92957 163 181 246 
-0.0806129 0.204113 4.93169 79 30 34 
8.90041 0.764285 18.5231 127 98 116 
9.95533 0.783642 18.9088 65 44 56 
6.82882 0.751595 17.1387 89 57 72 
1.12597 0.265262 5.94971 160 112 132 
8.52466 0.817078 18.1848 157 171 209 
-1.86661 0.17906 3.92713 24 45 112 
9.82813 0.894359 18.4461 147 157 193 
6.86631 0.83773 17.002 104 108 147 
-1.56058 0.211358 4.1892 39 32 36 
7.56428 0.902018 17.6281 166 185 227 
9.64391 0.964067 18.8335 113 117 165 
-1.68288 0.214706 4.10057 54 46 57 
6.55366 0.876538 16.79 172 186 231 
6.77065 0.893642 17.1088 170 185 225 
8.88348 0.950874 18.3162 111 117 164 
-1.98177 0.204725 3.84136 101 95 123 
6.7289 0.935495 17.0812 119 125 169 
-0.092734 0.275204 4.86844 81 36 39 
-1.90662 0.237842 3.88594 160 173 237 
0.263963 0.326631 5.05794 128 139 187 
0.675497 0.348507 5.39424 116 73 88 
0.221599 0.330453 5.02831 64 70 122 
10.0279 1.248 18.9817 71 45 64 
0.202185 0.33645 4.99648 136 148 190 
0.869787 0.375917 5.57973 86 48 59 
0.124358 0.342964 4.94769 116 70 80 
1.01161 0.393351 5.69842 75 40 52 
-1.85958 0.274839 3.91229 17 28 68 
0.52698 0.368159 5.2709 95 53 66 
0.00383335 0.343797 4.84695 87 49 63 
8.86714 1.34094 18.3506 153 165 203 
9.85622 1.38195 18.9479 39 25 43 
9.32189 1.36535 18.5311 105 97 133 
-1.85952 0.29154 3.91228 152 174 241 
-1.96713 0.289771 3.84 33 27 54 
-1.95359 0.294303 3.85427 152 163 224 
-1.84723 0.299238 3.92368 14 29 62 
-0.145116 0.360697 4.71608 97 52 65 
6.70055 1.32365 17.0875 173 185 224 
-1.84563 0.307534 3.94298 16 18 31 
-0.668354 0.332534 4.2569 78 44 56 
-0.000525895 0.381097 4.82665 89 45 58 
0.326537 0.403738 5.10928 94 51 66 
0.987403 0.448393 5.67742 98 56 72 
9.37454 1.44473 18.2433 66 50 72 
9.56817 1.50841 18.719 144 126 138 
-1.8711 0.323499 3.89951 159 174 243 
0.65053 0.445674 5.38888 86 46 61 
-1.92665 0.323088 3.86295 142 148 207 
-1.9358 0.325751 3.85343 12 13 31 
-0.800701 0.349967 4.1472 67 42 43 
-0.457495 0.374844 4.44604 74 32 41 
1.00191 0.479001 5.67261 95 50 63 
-1.94947 0.339916 3.85294 16 23 44 
-0.752356 0.368814 4.19034 77 45 54 
-1.86232 0.349316 3.92563 17 23 42 
-0.444816 0.397644 4.47993 81 39 47 
9.27331 1.62504 18.2709 51 39 51 
-0.870424 0.367812 4.08817 57 44 49 
-0.671646 0.383271 4.25325 100 73 86 
0.43463 0.471586 5.18979 88 45 60 
-0.764077 0.3817 4.17194 122 81 89 
-0.679476 0.390181 4.25442 66 48 55 
9.24258 1.71948 18.5395 50 33 47 
-0.684384 0.399724 4.23739 105 76 88 
0.798256 0.51796 5.50278 65 34 49 
9.24444 1.78326 18.5435 59 44 64 
-0.273483 0.445425 4.58698 85 40 53 
-1.50131 0.41778 4.25688 44 35 40 
-1.8171 0.399197 3.96606 69 47 59 
-0.301083 0.459372 4.5667 106 58 72 
9.05811 1.85391 18.4707 25 17 28 
-0.337909 0.462739 4.56372 103 52 59 
-0.136361 0.479447 4.70715 106 61 79 
0.128316 0.509076 4.92741 101 51 60 
-0.569765 0.454913 4.32441 100 51 58 
-1.65884 0.434125 4.09633 81 73 89 
-0.668314 0.45594 4.2566 87 44 53 
-1.86512 0.431033 3.93925 51 40 48 
-0.800602 0.473379 4.14677 61 35 44 
-0.543267 0.497698 4.3623 84 39 45 
-1.6036 0.527727 4.13487 42 36 50 
-1.63785 0.549201 4.12723 46 40 50 
1.39843 0.754925 4.48393 82 47 64 
-1.59649 0.731973 4.13615 59 45 58 
1.33815 0.868107 4.43174 76 38 52 
1.10888 0.964214 4.228 87 54 73 
-0.765419 0.974703 4.13935 33 23 20 
0.771945 0.948552 3.94741 77 39 50 
0.775746 0.955482 3.94865 90 49 67 
1.50956 1.08922 4.502 94 55 69 
-0.97124 1.03948 3.94446 73 32 41 
-1.43929 1.12892 4.14575 84 76 84 
-0.593496 1.21189 4.08694 112 126 155 
-0.665036 1.21863 4.09625 44 41 57 
-1.2543 -1.43694 4.50533 129 108 128 
8.83071 -5.70081 18.0662 155 176 220 
6.6719 -5.32997 16.9522 141 155 204 
9.19908 -5.76248 18.491 113 125 175 
9.33495 -5.74783 18.5232 115 127 181 
-1.22042 -1.38564 4.54221 124 96 114 
8.81979 -5.46205 18.3687 145 176 220 
6.51333 -4.92439 16.8737 115 111 141 
-1.22024 -1.31636 4.54177 123 100 116 
9.96151 -5.51429 19.0311 133 149 196 
9.45136 -5.32406 18.5952 166 183 233 
9.49785 -5.25994 18.5674 133 134 184 
9.20847 -5.21913 18.5505 111 125 170 
9.37043 -5.20669 18.5938 116 138 181 
-0.213823 -1.33531 4.78714 57 26 31 
-1.8792 -1.09196 3.94429 122 105 129 
-0.0861121 -1.34806 4.88678 51 33 40 
8.87533 -5.0495 18.4422 127 102 132 
9.74849 -5.09165 18.7021 150 154 182 
-1.299 -1.20047 4.4579 115 96 115 
9.04263 -4.93697 18.5 31 43 64 
9.62215 -4.97052 18.6921 86 80 96 
-1.62466 -1.10785 4.1786 66 51 65 
9.4435 -5.01965 18.9418 26 29 53 
-1.54354 -1.10883 4.2544 73 57 64 
9.12174 -4.90638 18.828 34 41 70 
9.74484 -4.96774 19.0498 110 123 149 
-0.174262 -1.25682 4.83715 66 35 47 
9.49466 -4.91952 18.9626 28 29 57 
0.404375 -1.36692 5.28437 50 30 40 
9.03755 -4.7917 18.5295 113 140 172 
-1.42441 -1.12007 4.36902 56 45 58 
0.393122 -1.35007 5.28674 99 59 68 
0.44764 -1.35898 5.32269 86 50 64 
0.429441 -1.3321 5.31108 139 95 115 
9.37954 -4.67734 18.6521 56 66 104 
9.21754 -4.68371 18.8985 80 97 151 
9.46102 -4.6309 18.6929 124 138 183 
0.423775 -1.3112 5.31252 110 75 95 
9.26894 -4.57433 18.6323 131 148 205 
9.39511 -4.56929 18.6823 79 75 132 
-1.1009 -1.11992 4.63918 72 57 69 
-1.02604 -1.11549 4.68743 106 83 99 
9.65724 -4.48188 19.0803 84 97 146 
0.443844 -1.24883 5.34618 62 31 39 
8.75969 -4.17375 18.2026 107 91 131 
9.07192 -4.24786 18.6 69 78 127 
9.28887 -4.23988 18.6726 91 91 154 
9.59189 -4.21276 18.7902 163 195 236 
0.245307 -1.13864 5.30738 72 41 56 
1.94724 -1.54276 7.20605 72 56 79 
9.34188 -3.93741 18.7375 72 69 116 
8.93507 -3.706 18.3199 64 68 116 
0.767882 -1.14714 5.78247 57 32 46 
-1.10415 -0.912641 4.63198 102 84 100 
8.82191 -3.60437 18.2904 89 81 123 
1.58018 -1.35037 6.89723 127 109 129 
0.134355 -1.02039 5.23509 61 34 43 
0.043045 -0.993435 5.15455 58 30 38 
0.0825652 -1.00008 5.18554 79 43 49 
0.122585 -0.988959 5.2167 109 66 79 
-1.65039 -0.764656 4.15239 130 106 119 
-0.0510899 -0.935624 5.0908 78 48 61 
0.281554 -0.982841 5.34059 72 43 58 
0.204386 -0.957819 5.28878 58 29 32 
-1.36402 -0.784 4.41861 69 53 67 
-0.0510379 -0.902705 5.07922 64 29 38 
-1.37626 -0.751467 4.36635 98 76 85 
6.70703 -2.90155 16.9474 89 65 95 
1.52085 -1.1251 6.83182 90 72 83 
-0.570288 -0.776903 4.77854 66 31 34 
0.258666 -0.856273 5.34511 110 69 84 
9.95812 -2.98563 19.0246 99 82 101 
0.774516 -0.89587 5.7852 119 78 92 
7.37434 -2.61499 17.3525 125 123 163 
8.29192 -2.68655 18.1275 124 137 182 
7.25791 -2.45118 17.1221 107 65 77 
7.26042 -2.41696 17.1279 110 67 76 
7.47944 -2.45762 17.4668 181 169 160 
1.25656 -0.923934 6.60829 69 57 76 
7.16245 -2.39067 17.0711 189 187 190 
8.23139 -2.49395 17.8683 126 108 112 
-1.82053 -0.553171 4.01231 28 30 47 
7.40748 -2.39842 17.4307 193 186 195 
-1.26277 -0.609887 4.46621 90 80 104 
7.25671 -2.36711 17.3409 200 201 214 
1.43738 -0.90887 6.75221 74 55 66 
7.16602 -2.27929 17.0798 138 119 132 
-1.19926 -0.596769 4.51844 79 47 56 
7.03453 -2.25958 17.2103 122 124 172 
7.23747 -2.27807 17.3394 179 193 237 
9.31293 -2.4422 18.599 132 135 168 
-0.244831 -0.57241 4.88882 112 75 89 
0.00952673 -0.602099 5.13086 158 137 129 
-0.229 -0.567431 4.88957 91 54 62 
-1.30719 -0.508259 4.42034 36 30 44 
0.104978 -0.596643 5.18296 199 187 163 
-0.188702 -0.552828 4.94242 110 80 103 
0.34685 -0.599929 5.36727 105 68 82 
7.07379 -1.93323 17.2605 109 118 170 
1.40977 -0.735007 6.72518 83 64 83 
-0.642707 -0.515555 4.74056 108 61 68 
-0.0235362 -0.55139 5.08125 143 126 116 
-0.0289951 -0.533621 5.07698 129 113 100 
1.87304 -0.72495 7.10201 82 57 73 
-0.635823 -0.475519 4.76628 63 33 45 
0.00949716 -0.509814 5.10366 196 185 155 
9.87635 -1.87927 18.8293 101 115 147 
9.37142 -1.81524 18.3981 158 177 215 
-1.41079 -0.423336 4.34186 64 54 71 
8.7224 -1.77802 18.1656 144 159 197 
0.323876 -0.515103 5.37176 66 26 36 
-1.36039 -0.414993 4.39133 129 111 131 
-1.55376 -0.395157 4.23209 65 53 70 
6.7463 -1.57933 16.8622 190 205 248 
9.95586 -1.7384 18.8643 108 115 153 
10.1497 -1.71271 19.2314 81 84 120 
-1.51376 -0.372161 4.23555 68 47 60 
-0.700412 -0.401879 4.68082 81 40 51 
7.39767 -1.46465 17.4967 174 189 234 
9.25196 -1.53294 18.5577 111 118 162 
-0.72486 -0.381008 4.6752 69 32 42 
7.92575 -1.43837 17.5759 157 172 213 
6.50693 -1.29357 16.7162 105 82 106 
6.45805 -1.27382 16.6833 85 67 82 
-1.38432 -0.329047 4.37684 107 94 106 
8.54719 -1.36586 18.1275 182 201 241 
-1.83959 -0.295724 3.98791 68 52 71 
0.336169 -0.392192 5.38211 88 47 65 
9.55214 -1.29583 18.5165 111 93 106 
-0.174523 -0.337089 4.99652 54 26 30 
0.732215 -0.39138 5.89827 58 28 36 
8.82712 -1.21035 18.2606 94 81 120 
9.63839 -1.19319 18.842 135 160 191 
1.23117 -0.368558 6.02873 60 29 31 
-0.592537 -0.285244 4.74997 134 76 88 
8.83896 -1.01582 18.2851 95 88 125 
-0.67087 -0.236339 4.68677 60 33 42 
8.65443 -0.760638 18.2297 100 109 148 
-0.680679 -0.189129 4.68465 60 24 31 
-0.741816 -0.147149 4.65481 109 58 63 
0.183926 -0.154845 5.04023 108 98 99 
-1.46938 -0.127769 4.27983 41 35 49 
-0.729591 -0.134143 4.67321 62 22 29 
6.72808 -0.423511 16.7266 117 115 162 
8.5205 -0.437909 17.9477 105 114 153 
-1.45151 -0.0987257 4.26822 111 76 84 
0.15049 -0.116267 5.01643 144 135 127 
1.65589 -0.108208 6.93298 127 110 128 
9.20432 -0.29145 18.5025 166 172 221 
1.68631 -0.0791198 6.93468 58 38 50 
0.0957861 -0.0459086 4.9943 114 103 99 
0.118 -0.046145 5.01969 84 64 53 
1.9441 -0.058195 7.16574 140 125 144 
6.73939 -0.117118 16.7548 120 122 165 
0.0201432 -0.029841 4.99822 130 121 124 
1.65432 -0.0421463 6.89518 142 125 144 
1.63918 -0.0353811 6.92575 66 40 62 
0.0963078 -0.0191822 5.02142 23 18 21 
9.63956 -0.0475097 18.965 62 67 95 
-0.269901 -0.00831538 4.86448 73 33 41 
-0.141764 -0.0088915 4.98606 55 18 26 
-0.0232531 -0.00307206 5.02641 105 79 66 
8.44448 -0.00845325 17.9514 118 122 173 
-0.477925 0.0227307 4.89255 111 58 66 
-0.97173 0.0387984 4.29112 102 62 80 
1.92727 0.0637579 7.16082 68 53 65 
1.14801 0.0682386 6.07197 81 48 67 
8.58008 0.20318 18.0323 107 117 154 
-0.829362 0.0566807 4.55478 106 54 56 
-0.524617 0.0583289 4.83504 62 22 25 
9.06281 0.246837 18.4999 53 53 89 
-0.632512 0.0694877 4.74173 67 39 48 
0.810551 0.0869129 5.95798 57 24 36 
-0.524618 0.0762379 4.83495 56 28 34 
-0.178096 0.0893485 4.94622 67 24 34 
-0.203745 0.094053 4.91937 133 85 99 
9.48852 0.345625 18.668 66 67 97 
-0.644302 0.0940261 4.7154 73 41 54 
0.797365 0.11647 5.95575 74 31 43 
0.385756 0.113037 5.42393 60 30 38 
-0.215478 0.107741 4.94473 63 23 31 
-0.178086 0.113163 4.94643 72 45 54 
0.070715 0.134717 5.13474 57 27 31 
-1.87015 0.108674 3.9255 51 46 67 
8.79597 0.519393 18.1558 125 106 134 
-1.95646 0.114373 3.86117 35 33 57 
-1.75689 0.118377 4.02621 130 114 131 
9.30586 0.552803 18.6258 83 75 126 
-1.87878 0.120811 3.91695 44 50 70 
6.76574 0.516118 16.7753 108 109 155 
9.4305 0.573699 18.6731 126 150 187 
-1.9508 0.127526 3.86649 26 23 43 
7.15508 0.568962 17.2771 155 173 218 
-1.98364 0.131076 3.84903 23 30 47 
-1.93984 0.130836 3.8781 112 106 155 
-1.84626 0.141796 3.94719 23 25 40 
6.96505 0.609872 16.9511 128 131 176 
-0.103208 0.184861 4.94865 133 84 103 
-1.9723 0.146983 3.8432 9 21 39 
-1.85629 0.155164 3.95034 17 22 37 
1.12732 0.234424 5.96257 153 108 127 
-1.96683 0.159033 3.84883 119 111 166 
-1.95853 0.159077 3.84887 152 162 226 
-1.86953 0.16321 3.93322 167 182 251 
1.11544 0.247596 5.96805 97 41 50 
-0.0707097 0.215655 4.92317 138 88 100 
1.12747 0.266962 5.96337 153 104 124 
9.95511 0.841902 18.8633 139 143 180 
-1.86658 0.183085 3.9271 25 31 80 
8.07625 0.887145 17.6144 155 173 216 
8.08699 0.908611 17.8487 178 195 239 
6.75942 0.892193 17.0339 171 185 229 
-1.97438 0.206168 3.84722 79 78 100 
-1.44835 0.227608 4.28649 95 81 98 
-1.71068 0.227185 4.08226 55 37 50 
-1.91477 0.227776 3.87836 27 27 66 
-1.89778 0.22893 3.89515 20 30 64 
-1.90625 0.240283 3.88673 164 177 248 
-1.84407 0.25525 3.92446 40 49 91 
