ply
format ascii 1.0           { ascii/binary, format version number }
comment made by Greg Turk  { comments keyword specified, like all lines }
comment this file is a cube
element vertex 1271
property float x
property float y
property float z
property uchar red
property uchar green
property uchar blue
end_header
-0.136354 -0.230174 3.56143 71 25 36 
-0.0967122 -0.22932 3.57513 80 29 38 
-0.179332 -0.174285 3.54367 62 21 34 
0.159825 -0.15431 3.54578 203 197 181 
0.161097 -0.149099 3.54549 173 162 144 
0.138026 -0.141938 3.54724 198 191 175 
0.0864538 -0.13672 3.59408 192 179 160 
1.76398 -0.141069 4.08894 131 133 182 
-0.694257 -0.10112 3.45403 64 24 28 
0.159621 -0.0859415 3.51313 78 64 64 
0.166134 -0.0866646 3.51606 122 110 112 
0.154802 -0.084786 3.51935 109 96 90 
0.125269 -0.0764129 3.51355 142 130 108 
1.36823 -0.0929697 4.35771 85 67 91 
0.0290472 -0.038525 3.58143 122 100 79 
0.605229 -0.031249 3.92605 69 27 39 
-0.0953528 0.0224872 3.57441 76 26 37 
0.985643 0.0625419 3.98587 134 88 98 
-1.59013 0.0739139 3.26345 48 50 97 
-1.49334 0.0886778 3.29257 64 76 148 
1.67678 0.141653 4.45187 135 125 142 
0.974602 0.126234 3.91836 144 99 115 
-1.52841 0.129924 3.27061 37 61 131 
-1.5866 0.13913 3.25624 59 55 103 
-1.49139 0.170657 3.28563 46 53 130 
-1.58225 0.173734 3.25702 126 133 182 
-1.49058 0.178576 3.28654 153 178 243 
-1.57725 0.178401 3.25646 150 146 202 
1.1226 0.218543 3.85619 106 55 74 
-1.50464 0.202228 3.28346 124 143 201 
0.852793 0.247263 3.7813 97 55 77 
-0.573149 0.238802 3.23717 87 47 62 
-1.44992 0.256573 3.30795 90 64 79 
1.84546 0.385977 4.51353 75 46 61 
0.963894 0.337813 3.81987 97 55 73 
1.61881 0.392883 4.42597 126 111 126 
-0.570974 0.297099 3.23806 105 51 64 
-1.23115 0.410672 3.37867 62 51 69 
0.682878 0.836347 2.68284 132 137 158 
0.572291 0.832488 2.62612 99 89 186 
1.74651 -1.56424 4.54491 133 120 137 
-0.699677 -1.23357 3.61655 100 73 96 
-0.746343 -1.18947 3.60631 99 73 94 
-1.02374 -1.13402 3.50258 90 77 94 
-0.603744 -1.16591 3.65579 118 91 108 
-0.626479 -1.16238 3.64909 70 51 70 
-1.10152 -1.09591 3.47391 130 114 131 
1.87787 -1.42772 4.58135 85 62 98 
1.50868 -1.27945 4.44558 112 86 112 
-1.043 -0.995455 3.4915 58 42 67 
0.393939 -1.00613 3.65407 91 40 64 
0.448604 -1.01131 3.67185 124 70 93 
1.32246 -1.12897 4.37407 128 107 123 
-1.31994 -0.865807 3.38383 113 89 112 
-0.973983 -0.861611 3.51192 61 46 66 
-0.871931 -0.827461 3.54429 70 56 80 
1.2383 -0.980865 4.32645 116 99 112 
0.127179 -0.826409 3.66593 76 38 55 
-0.891619 -0.776515 3.54341 83 66 92 
1.03414 -0.923728 4.25341 100 74 100 
-1.24492 -0.731358 3.41702 103 71 94 
0.122394 -0.745206 3.66555 122 78 90 
1.19521 -0.806232 4.3142 86 68 92 
1.34264 -0.810552 4.36629 92 77 103 
-1.55629 -0.574367 3.29012 100 94 125 
-0.337831 -0.606551 3.59099 72 35 46 
0.13013 -0.521554 3.65803 125 103 80 
-1.13219 -0.450892 3.44172 109 89 101 
0.149561 -0.466544 3.66611 213 202 178 
0.0598295 -0.461291 3.64051 176 164 148 
-0.13629 -0.448299 3.55143 75 36 45 
-0.0856879 -0.447098 3.56725 69 34 46 
0.051839 -0.452581 3.63539 176 159 141 
0.149313 -0.445681 3.66017 213 198 179 
-1.56985 -0.360862 3.28034 117 101 131 
0.460091 -0.405915 3.78053 71 30 44 
0.118536 -0.383472 3.59563 162 145 131 
-1.05795 -0.350264 3.47363 75 49 71 
0.194283 -0.366015 3.69791 203 188 165 
0.0627106 -0.345604 3.62288 160 142 118 
-1.29258 -0.284621 3.38015 132 117 132 
-1.49147 -0.267118 3.30937 116 99 118 
-1.24941 -0.263061 3.41089 69 46 66 
1.67892 -0.247564 4.47417 93 68 91 
0.122582 -0.200455 3.6696 114 83 65 
0.574891 -0.198267 3.92452 73 29 38 
-0.0534035 -0.17129 3.59157 57 16 26 
0.783217 -0.187431 4.00361 81 38 50 
0.163201 -0.162419 3.54658 122 114 114 
-1.33683 -0.149141 3.3661 88 71 95 
0.160175 -0.153876 3.54769 203 197 181 
0.138812 -0.150928 3.55381 182 172 162 
0.137063 -0.144471 3.54856 204 198 182 
-1.38355 -0.129847 3.3446 78 54 67 
0.0874546 -0.139119 3.60275 198 187 169 
1.90271 -0.162846 4.55352 172 191 227 
0.0826418 -0.124097 3.59818 150 132 110 
-0.694648 -0.100471 3.45596 64 24 28 
0.170581 -0.103692 3.53961 83 67 52 
0.168239 -0.0869389 3.52304 102 91 97 
0.155888 -0.085334 3.52092 87 75 71 
0.131873 -0.0817256 3.53363 64 47 37 
1.36852 -0.0935056 4.35963 89 68 89 
0.893364 -0.0818365 4.03727 76 26 35 
0.191103 -0.0589825 3.52056 149 137 112 
1.71784 -0.075922 4.48963 139 128 145 
1.48033 -0.0703365 4.40468 86 64 92 
0.449384 -0.0397047 3.7739 67 21 34 
38.4179 -2.34938 251.108 122 76 85 
33.8476 -1.65597 219.367 69 27 39 
0.594007 0.0427574 3.92723 89 46 60 
-1.5752 0.0450827 3.26876 42 36 59 
0.459746 0.0557319 3.77822 88 42 58 
-1.50935 0.0523735 3.28632 56 59 79 
0.984589 0.0637949 3.98043 137 90 101 
-1.59946 0.0578899 3.26027 48 53 80 
-1.56508 0.057467 3.26547 43 31 75 
-1.56142 0.0591736 3.27566 152 149 213 
-1.49232 0.081492 3.29608 169 193 254 
-1.16004 0.0898872 3.42375 89 76 86 
-1.58198 0.0886534 3.26819 69 88 146 
1.40067 0.132631 4.35968 73 56 79 
0.973744 0.126291 3.91603 136 87 102 
-1.43568 0.128918 3.32091 92 72 101 
-0.231066 0.151086 3.44644 121 60 70 
-1.4752 0.150883 3.30598 65 50 69 
-1.57606 0.169094 3.25607 45 68 130 
-1.49179 0.171208 3.28875 52 67 143 
-0.0473086 0.184552 3.48954 109 55 70 
-1.58745 0.173904 3.25324 40 33 65 
1.12725 0.21946 3.86445 102 50 71 
-1.59838 0.187868 3.2467 37 41 60 
0.951948 0.218935 3.8019 73 42 59 
-1.50405 0.20216 3.28107 159 179 237 
1.01454 0.233562 3.82597 61 34 43 
0.785907 0.231805 3.73564 92 45 61 
1.88786 0.284985 4.54224 81 59 84 
-1.5069 0.210403 3.28423 34 37 55 
-0.805628 0.20624 3.14984 64 38 48 
0.850302 0.246793 3.77634 87 49 70 
0.571818 0.244477 3.66485 88 48 63 
-0.401187 0.224265 3.30474 80 37 45 
0.287549 0.244032 3.55874 89 47 68 
-0.572766 0.239328 3.23496 87 47 62 
-0.578289 0.243356 3.23442 120 85 97 
0.672432 0.303177 3.70118 87 40 61 
1.01673 0.320495 3.82805 97 59 76 
0.734964 0.317282 3.72451 106 63 83 
0.959261 0.337353 3.80479 88 49 66 
0.172281 0.316139 3.51191 107 65 84 
0.671145 0.333889 3.69415 78 40 56 
-0.572117 0.297026 3.23129 89 39 51 
0.438681 0.555722 2.70624 89 47 67 
0.689123 0.589974 2.80098 85 53 73 
0.884039 0.607677 2.87642 98 51 70 
0.306986 0.583919 2.65634 69 32 44 
-0.547223 0.849224 3.1439 121 141 172 
0.680523 0.836918 2.68972 114 126 149 
0.683195 0.836666 2.68647 133 139 160 
0.537443 0.836678 2.61957 168 192 246 
0.53587 0.83822 2.61746 122 128 180 
-0.528109 -1.28226 3.6871 42 27 56 
1.28677 -1.44875 4.37582 82 65 91 
-0.739425 -1.17238 3.60938 137 113 126 
-1.02292 -1.13217 3.50177 85 73 89 
-1.08552 -1.10795 3.47411 116 91 108 
-0.567722 -1.16875 3.66987 58 43 59 
1.35917 -1.38447 4.38825 92 68 100 
-0.868834 -1.10802 3.56041 77 57 69 
1.31923 -1.33639 4.37027 99 76 101 
-1.10018 -1.02242 3.47513 59 50 67 
0.82699 -1.23255 4.18975 103 75 87 
-0.0838895 -1.00227 3.48299 113 72 83 
-1.0444 -0.997046 3.4952 52 38 63 
-0.915757 -0.999345 3.54128 119 114 136 
1.40523 -1.22472 4.39687 125 106 121 
-0.965867 -0.973303 3.52186 77 60 79 
0.392633 -1.00446 3.65077 99 44 68 
0.427415 -1.00577 3.67116 60 32 43 
-0.967567 -0.958836 3.52129 88 61 79 
0.399877 -0.984462 3.6649 147 101 119 
-0.905755 -0.940828 3.53151 102 72 89 
-0.914317 -0.901452 3.52915 99 65 85 
-1.36455 -0.854195 3.37105 76 64 94 
-1.27633 -0.85718 3.3988 119 113 140 
1.86621 -1.14185 4.57002 157 133 154 
1.42144 -1.08863 4.39779 126 112 131 
-0.974559 -0.860909 3.50736 54 42 59 
0.245493 -0.874405 3.70366 70 38 49 
-0.746455 -0.842161 3.60001 116 95 115 
-0.87517 -0.827223 3.5501 61 48 73 
1.14326 -0.970992 4.29341 88 65 85 
0.126185 -0.826792 3.66488 77 44 59 
1.69832 -0.959055 4.49883 90 70 97 
-0.911653 -0.728526 3.53402 72 48 62 
0.173002 -0.744567 3.68356 113 74 85 
-0.807815 -0.704828 3.57272 122 102 114 
0.0207736 -0.710813 3.63275 69 37 48 
0.21638 -0.725662 3.70164 114 74 84 
-0.436498 -0.677281 3.46814 75 41 55 
0.0378141 -0.693453 3.62958 120 76 86 
1.19644 -0.80636 4.31587 80 62 86 
-1.55473 -0.574784 3.29045 96 89 122 
-0.337905 -0.606389 3.59492 63 29 41 
-0.382541 -0.584201 3.57365 72 31 39 
-1.11789 -0.521569 3.4427 100 71 81 
1.42742 -0.666973 4.39612 80 59 79 
0.156938 -0.488889 3.66727 204 190 167 
-1.1327 -0.450943 3.43878 102 80 93 
0.0783068 -0.47459 3.66049 177 154 140 
0.0608137 -0.462372 3.64277 169 152 140 
-0.13722 -0.447524 3.55153 63 28 36 
-0.0856328 -0.445269 3.56498 61 27 39 
0.0512436 -0.453201 3.63795 174 154 140 
0.0492707 -0.448694 3.63245 176 164 145 
1.16537 -0.529778 4.29344 112 95 114 
-0.990648 -0.421235 3.4951 88 74 96 
0.42749 -0.438302 3.75693 70 30 41 
0.0358886 -0.41783 3.62139 181 170 152 
-0.752735 -0.363927 3.24059 98 43 51 
-1.08266 -0.353079 3.46859 72 60 79 
-1.07476 -0.351808 3.4723 72 57 80 
-1.05874 -0.351266 3.47333 74 57 75 
-1.04762 -0.331835 3.47859 57 46 62 
0.062392 -0.346708 3.62287 162 146 120 
0.1992 -0.352647 3.74168 213 202 180 
-0.371628 -0.33054 3.57783 72 33 42 
0.709598 -0.36728 3.97529 90 49 65 
0.127024 -0.31486 3.57896 161 147 120 
1.71119 -0.392134 4.49728 71 55 71 
0.614382 -0.337062 3.9369 104 51 68 
0.576299 -0.317752 3.91539 86 39 53 
0.603179 -0.316337 3.93083 64 33 46 
0.648423 -0.315584 3.94393 99 49 59 
0.706342 -0.315777 3.96861 62 31 42 
0.373389 -0.287652 3.74556 66 28 40 
0.417665 -0.287979 3.75704 90 44 57 
0.448775 -0.287408 3.77126 71 29 42 
0.593301 -0.286831 3.93351 89 51 74 
-1.389 -0.242295 3.34342 58 50 69 
1.68316 -0.261123 4.47297 131 115 139 
-0.400972 -0.182614 3.50833 133 83 94 
-0.391847 -0.182669 3.5086 88 37 47 
0.572353 -0.197829 3.91667 89 39 53 
1.06504 -0.191115 4.00916 61 28 41 
-1.33089 -0.150191 3.36441 95 68 83 
0.334902 -0.165473 3.73068 81 31 43 
0.566178 -0.160164 3.91627 74 27 39 
2.26837 -0.200345 5.00167 177 192 230 
-1.3829 -0.130027 3.34164 71 52 64 
-0.694362 -0.101211 3.45602 74 30 33 
0.140034 -0.0976542 3.52999 53 35 25 
0.16926 -0.0882901 3.48715 27 22 29 
0.13091 -0.0818551 3.53269 69 55 42 
1.50213 -0.101863 4.40791 131 109 126 
0.125435 -0.0762924 3.53428 128 111 91 
0.892708 -0.0806939 4.03442 76 26 35 
1.32441 -0.0873686 4.33812 85 64 86 
1.31111 -0.080907 4.33906 144 138 152 
1.71253 -0.0764781 4.48296 120 108 126 
-1.64167 -0.0506886 3.24321 69 65 91 
1.61829 -0.0658625 4.4363 115 86 103 
1.89949 -0.0590597 4.54973 165 178 212 
-0.0931888 -0.0443158 3.57266 62 22 33 
0.448506 -0.0404416 3.7693 74 25 39 
0.600716 -0.0378517 3.92859 126 79 89 
0.607794 -0.0326505 3.93451 84 37 48 
-0.733348 -0.00518415 3.33813 102 58 78 
-0.617137 0.0103826 3.47847 77 31 36 
1.71369 0.0155315 4.47393 68 50 72 
1.87665 0.0174677 4.53485 79 52 75 
-0.784982 0.015734 3.32078 85 45 53 
1.88921 0.0187165 4.53087 134 148 176 
-1.35607 0.0438933 3.34891 98 91 108 
-1.57427 0.0439857 3.26507 42 36 59 
-1.5609 0.0582467 3.27276 126 112 176 
-1.5083 0.0584621 3.2884 104 115 180 
-1.32733 0.061542 3.36024 58 45 56 
-1.59024 0.0726743 3.26296 39 54 93 
-1.58504 0.0765058 3.26274 135 127 188 
-1.48447 0.078077 3.30412 21 23 57 
-1.57806 0.0892838 3.25883 77 90 150 
1.66674 0.140227 4.45467 61 44 60 
-1.53911 0.13029 3.2701 34 27 82 
-1.52879 0.130547 3.27356 37 61 131 
-1.53386 0.133883 3.27345 156 174 237 
0.956279 0.157508 3.8825 125 64 83 
-1.58766 0.137135 3.25763 67 62 102 
-0.0492953 0.151648 3.50109 116 55 73 
-0.23204 0.151425 3.44755 119 58 67 
-1.58298 0.171243 3.25853 125 137 182 
-1.58939 0.173708 3.25782 59 48 81 
-1.5767 0.177468 3.25968 152 153 215 
-1.48463 0.180071 3.29689 45 54 103 
1.12482 0.217787 3.86304 119 66 86 
-1.59929 0.18796 3.2502 41 44 62 
0.172299 0.201595 3.51209 117 124 170 
0.84616 0.217785 3.76229 104 53 75 
0.170813 0.210384 3.51957 134 132 172 
0.38637 0.213292 3.59406 82 46 63 
0.226585 0.212545 3.53002 143 156 201 
0.170171 0.212341 3.50602 132 128 161 
-1.50434 0.201298 3.27989 163 180 240 
0.784794 0.230095 3.74115 128 76 95 
-1.56037 0.203242 3.26112 20 15 39 
-0.283107 0.209146 3.34924 115 64 80 
0.73251 0.231513 3.72349 77 41 54 
0.505018 0.22799 3.62471 124 72 92 
0.45511 0.228997 3.61884 76 42 57 
-1.50439 0.20952 3.28004 34 37 55 
1.12966 0.248003 3.87273 71 38 55 
-0.757072 0.2056 3.168 63 34 39 
0.168704 0.227629 3.51363 81 46 53 
-0.113909 0.224912 3.4117 110 57 71 
0.175931 0.233149 3.51156 117 77 88 
0.393577 0.239993 3.59147 98 61 72 
-0.401882 0.22374 3.3056 98 51 59 
-0.346128 0.223535 3.31703 91 47 66 
0.287915 0.243265 3.5594 87 47 62 
-0.689474 0.221087 3.19168 71 40 41 
-0.39604 0.229424 3.30025 125 77 87 
0.00181318 0.240546 3.44887 86 48 63 
-0.283122 0.239616 3.3498 98 51 66 
0.278157 0.254535 3.55348 101 58 78 
-0.648613 0.233164 3.20383 94 57 72 
-0.573869 0.237359 3.23478 86 46 55 
-0.785687 0.238866 3.15664 105 96 116 
-0.577191 0.243926 3.23452 126 90 103 
-0.582161 0.248792 3.23404 82 50 59 
0.598338 0.301995 3.67516 121 68 79 
0.671702 0.303539 3.69897 106 54 74 
0.285799 0.302 3.55646 90 46 60 
0.731544 0.316897 3.71865 99 60 79 
-0.453882 0.286631 3.28272 83 45 58 
0.957227 0.33569 3.80591 78 44 56 
-0.576546 0.291173 3.23089 125 79 87 
-0.463348 0.298616 3.27687 99 50 68 
-0.573271 0.297615 3.24087 106 53 63 
-0.115385 0.314335 3.40199 110 63 82 
0.397342 0.332799 3.59177 91 50 62 
-0.176879 0.32967 3.39051 119 65 78 
-0.464333 0.327603 3.27168 102 51 59 
-1.2312 0.409857 3.38536 71 55 70 
-1.26044 0.502338 3.38307 65 49 60 
0.519396 0.532735 2.73466 114 59 78 
0.819577 0.555941 2.85061 79 46 64 
0.307969 0.553126 2.65875 64 36 47 
0.43854 0.585088 2.7112 101 52 65 
0.306251 0.585359 2.65597 58 30 41 
0.710263 0.630389 2.80652 114 60 82 
0.876773 0.652182 2.87224 70 40 55 
0.868833 0.662739 2.87073 97 57 80 
-0.58962 0.851382 3.14661 86 94 127 
0.143677 0.722055 2.551 122 83 104 
0.591609 -1.2785 3.73133 88 54 60 
-0.515078 -1.25967 3.69881 58 43 63 
-0.744675 -1.19083 3.60911 96 69 89 
-0.790123 -1.17026 3.58976 72 61 93 
-0.861548 -1.15896 3.56869 88 62 84 
-0.740395 -1.17273 3.61059 141 117 130 
1.51549 -1.44269 4.45319 63 56 78 
-1.02293 -1.13049 3.50078 84 72 89 
1.5822 -1.44515 4.48378 70 56 78 
-1.08662 -1.10884 3.47978 125 99 119 
-0.565983 -1.16796 3.66888 54 39 56 
1.72376 -1.44264 4.53838 76 62 91 
-0.870254 -1.10874 3.55883 73 56 68 
-0.897268 -1.09046 3.54216 119 94 111 
0.895261 -1.29508 4.21406 97 77 104 
-0.65559 -1.10382 3.63028 140 124 145 
0.826157 -1.231 4.1853 103 75 87 
-0.00240741 -1.03151 3.5132 78 40 55 
-0.0831744 -1.0026 3.48409 113 72 83 
-1.0447 -0.998186 3.49371 50 38 56 
1.6424 -1.28693 4.50302 56 47 74 
-1.03493 -0.994898 3.49037 126 95 110 
-1.04858 -0.991217 3.49205 133 123 143 
0.375589 -1.02073 3.65556 63 36 51 
-0.814658 -0.981862 3.5702 70 46 61 
0.394125 -1.00764 3.65744 104 50 74 
0.456347 -1.01239 3.67872 154 102 120 
-0.964241 -0.966376 3.51979 136 114 129 
-0.0485363 -0.953864 3.50808 148 101 121 
-0.906028 -0.940447 3.53412 102 72 89 
-0.974371 -0.919358 3.50881 116 97 115 
-1.45646 -0.870476 3.334 105 92 117 
-0.978345 -0.904999 3.51545 53 35 53 
-1.32025 -0.860311 3.38101 65 45 71 
-1.27952 -0.860382 3.40812 112 106 134 
-0.984424 -0.866952 3.506 112 96 113 
-0.976474 -0.863841 3.51672 56 43 60 
-0.746549 -0.842577 3.59865 116 95 115 
-0.875375 -0.827946 3.55399 62 47 74 
0.126037 -0.82547 3.66057 74 37 53 
0.112385 -0.816573 3.66413 91 50 67 
0.172986 -0.76592 3.68324 68 25 38 
0.298684 -0.742176 3.72534 73 38 49 
1.6972 -0.895447 4.49991 150 125 147 
0.0271534 -0.719875 3.62434 75 38 52 
-0.807233 -0.705093 3.57844 127 107 122 
0.0226771 -0.711241 3.63376 60 28 39 
-0.437007 -0.677323 3.46935 75 41 55 
0.0385855 -0.693932 3.631 118 79 87 
1.2046 -0.795576 4.31124 131 118 141 
0.276711 -0.645664 3.71249 114 73 82 
-1.43773 -0.566696 3.33555 115 89 109 
-0.382763 -0.583066 3.57234 72 31 39 
-0.824792 -0.57788 3.55807 76 54 81 
-1.46198 -0.524125 3.31962 98 78 99 
0.116597 -0.556216 3.65116 171 155 135 
-1.11805 -0.52255 3.44536 101 72 82 
0.156159 -0.489547 3.66697 198 182 160 
-0.97575 -0.464633 3.50037 104 75 94 
0.0616247 -0.464234 3.64556 174 154 141 
-1.53469 -0.415864 3.30189 33 35 50 
-0.993541 -0.440166 3.49356 75 52 63 
1.42724 -0.538907 4.40724 79 59 73 
0.0431899 -0.437199 3.63129 180 165 146 
1.43699 -0.524431 4.39475 139 128 152 
-0.17823 -0.421137 3.55621 59 26 33 
0.374469 -0.440236 3.7367 76 38 48 
0.428429 -0.437962 3.75836 69 30 42 
-0.0852801 -0.4085 3.58187 65 31 36 
-1.44048 -0.374381 3.33774 68 53 71 
-1.05202 -0.367981 3.47735 70 57 67 
-0.755491 -0.344187 3.25105 74 32 37 
-1.08273 -0.352274 3.4711 57 43 66 
0.0612614 -0.34748 3.62311 166 146 120 
-1.04828 -0.330522 3.47959 48 39 53 
-0.508689 -0.33198 3.53106 72 33 45 
-0.402245 -0.33079 3.56779 85 44 53 
-0.520538 -0.316891 3.5365 65 29 41 
1.70927 -0.391938 4.49584 58 41 55 
-0.0941652 -0.297447 3.57943 72 33 44 
0.576488 -0.319033 3.91673 110 60 71 
3.37314 -0.511175 6.45001 185 198 240 
0.608517 -0.304496 3.94947 77 40 52 
1.4877 -0.264278 4.40708 102 70 86 
1.68515 -0.259794 4.47704 136 122 143 
-0.406426 -0.197064 3.50795 102 51 59 
1.68013 -0.249058 4.4786 104 80 101 
-0.051796 -0.198034 3.59678 83 44 57 
1.66513 -0.245777 4.46843 134 120 136 
0.574248 -0.197708 3.91846 82 34 47 
1.51327 -0.217426 4.41738 119 106 126 
-0.0539964 -0.172626 3.59337 79 32 40 
1.06418 -0.190816 4.00751 61 28 41 
-1.33491 -0.149678 3.36216 100 80 98 
0.334099 -0.165292 3.73043 87 36 48 
-0.545658 -0.143588 3.51341 119 63 69 
-0.295593 -0.147819 3.60324 69 28 34 
0.567582 -0.160223 3.92312 74 27 39 
-0.135991 -0.14218 3.56034 100 49 66 
-1.13459 -0.134491 3.43785 52 41 52 
1.89988 -0.163083 4.54832 162 176 212 
0.169479 -0.104521 3.51431 97 80 62 
0.178161 -0.0888671 3.51195 60 54 66 
0.133425 -0.0841101 3.55018 51 38 29 
1.31098 -0.0813475 4.34306 144 138 153 
1.71747 -0.0770461 4.48855 134 119 138 
0.0757515 -0.0516354 3.55706 71 60 58 
1.62638 -0.0658334 4.45462 110 78 98 
-0.170944 -0.0450376 3.5456 69 28 36 
1.90131 -0.0599343 4.55177 169 184 219 
0.449623 -0.0412628 3.7787 87 36 48 
1.49213 -0.00491414 4.39611 137 123 140 
1.30274 0.0102402 4.33399 105 87 113 
1.71355 0.0132968 4.47846 71 54 71 
1.88407 0.0154817 4.54475 97 73 94 
-0.784706 0.0163799 3.31525 80 43 55 
-0.619418 0.0171664 3.48313 52 30 37 
0.606728 0.0311164 3.9384 90 51 66 
-0.630858 0.0319915 3.47413 80 38 55 
0.754709 0.0415387 3.99061 89 47 63 
-1.61216 0.0391671 3.25898 84 75 98 
0.753345 0.0487195 3.98339 88 43 58 
-1.57476 0.0454279 3.26606 42 36 59 
0.458622 0.0555007 3.7749 93 45 60 
-1.56833 0.0561443 3.27398 61 42 73 
-1.59952 0.0577989 3.26235 37 43 68 
-1.56063 0.0583244 3.27501 128 119 183 
-1.32842 0.0625222 3.35682 52 42 58 
-1.59011 0.0714995 3.26405 23 34 76 
-1.48545 0.0775532 3.30396 13 21 56 
-1.11953 0.0804542 3.44488 35 27 33 
0.987721 0.09084 3.97301 132 87 106 
-1.49285 0.081086 3.29293 173 193 255 
-0.0222732 0.0905538 3.56361 112 56 69 
-1.49438 0.0907585 3.29183 67 90 162 
1.66586 0.146642 4.46355 130 115 134 
-1.32713 0.118589 3.36422 64 52 70 
-1.34767 0.126898 3.35767 80 57 73 
-1.53484 0.126098 3.27258 170 179 240 
-1.54026 0.129983 3.27104 42 31 89 
-1.53087 0.130091 3.28168 25 48 112 
0.955836 0.157382 3.88399 124 63 81 
-0.233281 0.150815 3.45017 119 58 67 
-1.47953 0.149516 3.29086 59 59 99 
-1.49197 0.167909 3.28651 34 36 100 
-1.57756 0.168917 3.25922 43 70 129 
-1.58336 0.169824 3.25867 126 129 172 
-0.232901 0.179572 3.44431 110 49 56 
-0.0480441 0.183881 3.48964 100 47 62 
-1.49355 0.177981 3.29004 158 180 245 
0.164994 0.196181 3.51276 127 76 95 
0.182256 0.197662 3.50622 79 73 119 
-1.60042 0.188291 3.25603 23 28 47 
0.174072 0.203286 3.51848 115 126 174 
0.565265 0.212859 3.65463 116 68 88 
0.668952 0.215107 3.69648 112 63 80 
0.113821 0.210112 3.49465 124 70 84 
0.228035 0.212674 3.53523 144 156 201 
0.171529 0.212842 3.51116 135 135 169 
1.06992 0.233595 3.84827 99 47 60 
-1.55593 0.201276 3.26965 148 146 198 
-1.5593 0.202363 3.25533 18 15 34 
-0.282804 0.208236 3.34576 127 76 91 
0.735561 0.230657 3.72907 102 57 73 
1.88433 0.283854 4.53887 96 69 87 
1.12768 0.247195 3.87288 70 36 53 
-0.756533 0.204471 3.163 80 46 50 
0.169351 0.227357 3.51203 97 55 63 
0.225351 0.227898 3.52792 93 49 65 
-0.805161 0.205945 3.15175 59 33 43 
-0.115259 0.224923 3.40941 106 54 67 
0.39406 0.241052 3.59588 98 61 72 
-0.400842 0.223387 3.30012 80 37 45 
-0.637053 0.219974 3.20956 105 66 80 
0.287437 0.242987 3.55811 87 47 62 
-0.688825 0.220724 3.1887 71 40 41 
-0.820369 0.21939 3.14195 78 53 59 
-0.396743 0.230595 3.30017 111 67 76 
0.00219664 0.239905 3.45014 86 48 63 
-0.642198 0.228197 3.21524 122 84 95 
0.278124 0.253836 3.55301 103 60 78 
-0.678574 0.233193 3.19688 58 31 34 
-0.648784 0.233485 3.20804 82 48 62 
-0.573573 0.237706 3.23702 80 43 53 
-0.784752 0.238283 3.15696 107 101 121 
-0.577558 0.243599 3.23667 126 90 103 
-1.45163 0.256515 3.30713 87 59 73 
-1.16544 0.268585 3.42156 44 37 44 
1.12702 0.305373 3.87069 95 48 60 
0.619525 0.293031 3.67796 78 37 44 
0.874005 0.305037 3.7724 111 53 67 
0.394185 0.29971 3.59705 117 69 87 
1.01797 0.319797 3.83424 107 63 81 
-1.49279 0.280615 3.29743 61 44 54 
0.735926 0.317478 3.731 101 60 78 
0.455708 0.313691 3.62067 111 70 93 
-0.45377 0.286168 3.2794 87 48 64 
-0.797912 0.281826 3.15428 67 35 34 
-0.256082 0.29889 3.35265 91 46 65 
0.675301 0.333903 3.706 99 54 68 
-0.115052 0.312036 3.40341 109 64 82 
0.396396 0.33189 3.59676 100 57 66 
-0.402244 0.310773 3.2945 106 59 77 
0.113895 0.332992 3.49685 105 51 67 
-0.176113 0.32991 3.3892 124 70 84 
-0.466084 0.327508 3.27934 102 51 59 
-1.23012 0.410771 3.38136 56 43 61 
-1.3322 0.49209 3.34535 77 60 70 
-1.43178 0.497892 3.30906 51 49 63 
0.493583 0.501709 2.72765 85 49 61 
0.261414 0.49118 2.64261 92 45 54 
0.439328 0.554682 2.70907 85 46 62 
0.68196 0.597502 2.79978 99 59 78 
0.870718 0.663919 2.87298 96 56 80 
-1.14423 0.791851 3.34043 86 82 93 
0.632235 0.663473 2.78154 95 61 85 
0.318268 0.655695 2.66148 139 100 119 
-1.45941 0.849297 3.21835 68 51 60 
-0.543325 0.853318 3.16545 68 86 114 
1.27874 -1.44086 4.35219 95 78 103 
-0.743834 -1.18761 3.60316 95 66 88 
-0.686687 -1.18393 3.61622 109 83 101 
-0.790039 -1.17094 3.59118 82 66 100 
-0.741298 -1.17207 3.60391 144 117 134 
0.169918 -1.1637 3.60937 80 41 58 
-1.1082 -1.11546 3.47102 49 44 64 
1.6879 -1.44215 4.51849 82 62 85 
-0.866444 -1.11652 3.5506 131 104 120 
-0.930025 -1.09431 3.53847 140 116 139 
-0.893199 -1.09022 3.53996 132 108 122 
-0.657045 -1.10506 3.63316 140 124 145 
-1.37611 -1.01054 3.37271 88 66 79 
-1.31724 -1.00735 3.3715 131 108 127 
-1.0995 -1.02236 3.47723 61 51 67 
0.826724 -1.23229 4.18547 96 68 80 
-1.04895 -0.990855 3.49164 136 126 147 
0.45485 -1.01237 3.67401 154 102 120 
-0.0511888 -0.953498 3.50814 145 102 121 
0.484554 -1.00331 3.68971 64 35 47 
-1.04832 -0.933673 3.49897 55 46 65 
-0.906516 -0.939751 3.53079 105 76 94 
-0.973993 -0.920344 3.506 120 99 116 
-1.45728 -0.870092 3.33282 108 96 120 
-1.50333 -0.85232 3.31284 118 98 125 
-0.978745 -0.904262 3.51355 59 41 60 
-1.32216 -0.861206 3.37846 69 54 76 
1.33327 -1.08451 4.37104 91 72 91 
-0.966924 -0.870311 3.51903 121 113 129 
-0.976489 -0.863968 3.51542 56 44 61 
-0.729756 -0.853067 3.60252 111 94 108 
-0.874938 -0.826475 3.54303 71 57 81 
1.14505 -0.972081 4.294 83 62 79 
-1.12263 -0.737989 3.46129 69 51 62 
0.170358 -0.765562 3.67636 76 34 44 
0.0619993 -0.749771 3.64376 82 43 57 
-1.02643 -0.718125 3.49684 132 107 126 
0.0262606 -0.719503 3.62613 81 46 60 
0.216285 -0.726673 3.70543 120 76 86 
1.02495 -0.826989 4.25168 133 123 150 
1.19486 -0.806588 4.31112 91 77 102 
1.41961 -0.816753 4.38465 125 108 124 
-1.31193 -0.595341 3.38599 63 46 69 
-1.43528 -0.565258 3.33573 125 101 122 
-0.394993 -0.602938 3.56538 65 29 35 
1.18825 -0.726238 4.29918 96 69 88 
-0.338798 -0.605018 3.59489 71 34 46 
-0.851165 -0.585584 3.54525 73 56 72 
0.43482 -0.603934 3.7401 124 69 82 
-0.912378 -0.568281 3.53458 78 62 88 
1.18872 -0.688534 4.31287 93 72 93 
-1.46186 -0.5246 3.3165 106 87 108 
1.05498 -0.659097 4.24431 118 102 125 
0.114012 -0.554545 3.64161 168 157 133 
0.048429 -0.533187 3.65034 101 83 72 
-1.44188 -0.447303 3.32805 59 58 82 
0.147452 -0.463325 3.65597 218 208 183 
-0.994326 -0.439875 3.49634 75 52 63 
-0.137044 -0.447584 3.55077 63 28 36 
1.41837 -0.537701 4.39158 69 51 66 
1.42972 -0.521995 4.3759 135 125 149 
-0.989681 -0.414804 3.49848 38 28 42 
-0.179497 -0.419733 3.54603 60 25 34 
0.357786 -0.441816 3.7286 103 70 81 
0.034458 -0.419677 3.62215 147 128 120 
0.424669 -0.436244 3.74993 78 38 48 
-0.447361 -0.40481 3.55662 57 28 32 
-0.402703 -0.403757 3.56354 91 49 58 
0.332296 -0.40767 3.72567 87 43 53 
-0.134989 -0.387481 3.56754 83 47 64 
-0.447394 -0.383708 3.55695 74 41 55 
3.37055 -0.688334 6.44623 162 184 221 
-1.19307 -0.357249 3.41112 73 58 79 
-1.06597 -0.362581 3.46467 71 59 81 
-1.05981 -0.351037 3.47869 75 49 71 
0.609221 -0.388622 3.94122 69 37 48 
0.0508835 -0.347979 3.6272 160 140 106 
0.0619121 -0.347418 3.63495 166 146 120 
-0.448164 -0.330417 3.54219 77 39 47 
-1.20017 -0.317681 3.42415 53 46 62 
-0.37186 -0.33079 3.57649 84 43 52 
0.705759 -0.367829 3.96765 100 62 83 
0.0398541 -0.332693 3.61607 132 108 91 
-0.529601 -0.315342 3.51726 75 36 44 
-0.521393 -0.316181 3.53333 62 28 40 
1.69692 -0.391164 4.47375 61 48 60 
0.61358 -0.336016 3.93104 102 50 63 
-0.171368 -0.297388 3.54412 62 27 34 
-0.094904 -0.296876 3.57368 62 26 38 
-1.39407 -0.271337 3.34012 69 55 65 
-1.05526 -0.280147 3.47251 113 99 116 
0.575503 -0.316431 3.91329 83 37 53 
0.606049 -0.317422 3.93993 68 37 48 
0.705979 -0.314818 3.96889 56 29 39 
0.34112 -0.287495 3.73035 86 45 56 
0.729985 -0.298573 3.98593 60 29 38 
0.592334 -0.287405 3.92749 89 51 74 
0.350668 -0.271518 3.74249 69 38 47 
1.89287 -0.289771 4.54081 134 137 173 
-0.486222 -0.212807 3.52898 82 40 48 
1.4853 -0.265199 4.40485 109 75 91 
1.87851 -0.268483 4.54719 103 72 98 
1.6799 -0.258312 4.46461 130 115 138 
-0.40669 -0.195027 3.50644 95 45 54 
0.120359 -0.201392 3.66732 111 77 65 
0.388435 -0.20192 3.75413 65 34 42 
-0.181812 -0.173868 3.54071 82 39 56 
0.591156 -0.190927 3.90043 94 42 47 
-0.0547821 -0.170419 3.58614 61 24 32 
0.776086 -0.189127 3.99228 70 32 45 
1.06312 -0.189903 4.01118 62 31 42 
-0.0870869 -0.16167 3.58452 68 26 36 
0.332654 -0.165502 3.72999 99 46 58 
-0.301335 -0.146847 3.60182 54 19 28 
0.564067 -0.159926 3.91583 90 39 52 
-1.13401 -0.133687 3.4348 50 39 49 
-0.534647 -0.136366 3.51625 68 27 29 
0.376913 -0.135213 3.75206 99 48 66 
0.749565 -0.13795 3.97894 88 36 49 
2.39507 -0.172851 5.02952 186 203 246 
-1.07136 -0.106236 3.44923 117 93 107 
0.167956 -0.103294 3.50988 77 61 46 
0.178858 -0.0874272 3.51683 117 107 115 
0.16797 -0.0819273 3.51023 153 143 133 
1.49453 -0.103663 4.39326 126 104 123 
0.126526 -0.0729607 3.53203 142 127 104 
1.32236 -0.0885082 4.33757 88 69 87 
1.87667 -0.0888524 4.53494 110 90 117 
1.70335 -0.0779295 4.46473 111 99 117 
-0.118618 -0.0507336 3.56132 95 43 47 
-0.171504 -0.044843 3.54805 69 28 36 
0.0099448 -0.0456607 3.59995 74 48 41 
1.89731 -0.059289 4.54355 165 178 212 
-0.44705 -0.0388785 3.53426 57 21 28 
0.0581472 -0.0398748 3.56976 54 34 32 
0.119506 -0.0397026 3.55968 37 28 31 
0.416721 -0.0397358 3.75506 76 29 41 
-0.319594 -0.0177985 3.59431 118 63 66 
-0.783979 -0.00828876 3.31911 122 79 96 
-1.27522 0.00602096 3.3851 75 56 76 
0.995301 0.0127292 3.96945 110 60 81 
1.04014 0.0129576 3.99271 68 44 57 
1.87788 0.0163237 4.538 79 52 75 
-0.784042 0.0160077 3.31946 75 39 51 
-0.137486 0.0228824 3.56468 86 36 45 
0.603787 0.0305032 3.92574 89 52 66 
0.591683 0.0442555 3.92364 91 51 69 
-1.49907 0.0410378 3.29569 39 42 62 
0.387888 0.0451734 3.74921 65 31 39 
0.75503 0.048061 3.99228 88 43 58 
-1.35516 0.0437117 3.35015 108 99 116 
-1.57592 0.0452591 3.27019 35 28 50 
-1.39649 0.0486622 3.33463 140 121 134 
0.458796 0.0550194 3.77644 90 44 57 
0.981715 0.0627274 3.97483 126 79 88 
-1.56902 0.0554253 3.27119 39 28 54 
-1.55979 0.0580387 3.27243 128 119 183 
-1.47646 0.0656627 3.30612 45 37 56 
-1.58513 0.0729394 3.26893 134 125 185 
-1.48243 0.0756526 3.29731 13 21 56 
0.986732 0.0905524 3.97107 132 87 106 
-1.58285 0.0780125 3.26928 163 171 236 
-1.49441 0.0806558 3.2964 173 193 255 
-0.0276044 0.089074 3.5596 112 59 69 
0.97594 0.106014 3.91577 156 107 122 
-1.49681 0.0934149 3.29623 34 47 120 
1.50724 0.126159 4.38267 102 79 88 
1.66891 0.140762 4.46272 63 47 65 
1.665 0.14772 4.47022 143 126 142 
-1.37364 0.114427 3.35235 103 85 101 
-1.11871 0.128159 3.4438 106 94 116 
-1.34834 0.127739 3.35203 63 43 60 
-1.54001 0.131246 3.26714 24 26 64 
-1.53431 0.135867 3.27072 169 183 247 
-1.47723 0.150731 3.30236 55 43 61 
-1.49572 0.164471 3.28853 26 33 92 
-1.5755 0.16799 3.25425 43 70 129 
-1.48619 0.174828 3.28928 121 137 196 
-1.58691 0.175284 3.25257 28 25 54 
-1.57322 0.178084 3.25456 160 166 224 
-1.48506 0.183009 3.29773 22 29 65 
-1.12181 0.194959 3.43758 97 88 106 
0.22426 0.199217 3.52439 137 155 204 
-1.59826 0.187569 3.2508 31 36 55 
0.170339 0.203556 3.50474 129 128 166 
0.563125 0.212943 3.6438 116 68 88 
0.669922 0.216054 3.70443 111 63 78 
0.22771 0.214128 3.53707 149 158 201 
-1.55407 0.200402 3.26577 153 156 213 
-1.50771 0.201181 3.28783 159 179 237 
-1.56331 0.202718 3.26459 19 15 39 
0.73158 0.230319 3.7207 98 54 69 
-1.50526 0.209954 3.28772 17 22 37 
-0.469102 0.209166 3.28022 71 35 50 
1.58336 0.280291 4.42065 88 63 81 
-0.572991 0.208872 3.24054 68 38 54 
0.224485 0.227008 3.52819 93 49 65 
1.63456 0.28534 4.44246 78 54 82 
-1.57252 0.212584 3.26333 26 33 61 
-0.804727 0.205425 3.14694 64 38 48 
-0.759356 0.206106 3.16487 51 29 34 
0.175878 0.233087 3.51022 119 78 90 
0.394194 0.240508 3.60132 116 70 84 
0.568912 0.243024 3.66335 77 42 57 
-0.347874 0.223388 3.32322 99 54 72 
-0.402333 0.224703 3.29875 60 27 35 
1.02998 0.260195 3.82173 58 35 43 
-0.691787 0.220612 3.19317 74 42 44 
0.477731 0.248165 3.61902 142 98 117 
0.837757 0.257767 3.75807 109 64 88 
-0.820298 0.219846 3.14312 78 53 59 
-0.395883 0.230277 3.30699 134 84 94 
-0.684867 0.22784 3.19448 84 55 57 
-0.642144 0.228336 3.20898 127 86 95 
-0.390299 0.235296 3.30169 99 48 61 
-0.284938 0.238263 3.34633 88 47 61 
-0.649182 0.234032 3.20785 92 53 65 
-0.00859828 0.252852 3.44479 106 65 87 
-0.754904 0.2352 3.16611 70 48 61 
-0.786452 0.238839 3.15916 116 105 122 
-0.577831 0.244699 3.24056 134 93 104 
-1.45268 0.255958 3.30868 83 58 71 
-0.583649 0.249908 3.23214 79 53 64 
0.623943 0.292246 3.67957 90 46 54 
0.871701 0.304448 3.7706 129 68 83 
0.743285 0.3042 3.72342 105 66 85 
0.841314 0.307262 3.76143 90 44 57 
1.01324 0.320072 3.82361 100 66 81 
-1.49245 0.279979 3.29768 61 44 54 
0.284667 0.301288 3.55154 87 44 59 
0.731944 0.317178 3.72263 101 62 81 
-0.454552 0.286169 3.28193 97 54 66 
-0.000840654 0.300554 3.4533 86 45 60 
-0.583728 0.284503 3.23249 94 42 47 
0.953103 0.335546 3.8015 68 38 51 
-0.796837 0.280861 3.14388 64 33 31 
-0.286822 0.298426 3.33893 106 54 65 
-0.499852 0.292813 3.25597 118 68 73 
0.170892 0.316588 3.51656 109 71 92 
-0.791556 0.288743 3.15105 100 62 67 
-0.549233 0.296911 3.24414 98 60 67 
-0.116131 0.312997 3.40942 112 71 90 
-0.757312 0.295384 3.16617 88 46 56 
-0.178711 0.329829 3.38227 100 51 66 
-0.465764 0.327773 3.27398 102 51 59 
-1.43125 0.498161 3.3109 40 38 53 
0.309294 0.476641 2.66148 83 39 48 
0.292124 0.48551 2.65093 78 35 49 
-0.681158 0.607877 3.17691 77 58 56 
-1.10652 0.683121 3.42189 33 28 39 
0.679948 0.598179 2.79587 101 62 83 
0.442613 0.590384 2.70634 108 69 83 
0.333319 0.582689 2.66184 103 57 75 
0.298372 0.598268 2.65343 85 51 68 
0.672545 0.650591 2.79124 114 62 81 
-1.14569 0.793273 3.34085 91 83 91 
0.337879 0.651331 2.66624 141 101 120 
0.258889 0.646217 2.63717 100 63 82 
0.316568 0.655503 2.6556 141 102 121 
0.244494 0.660986 2.6316 88 57 74 
0.950338 0.745186 2.8699 85 47 61 
-0.544795 0.852957 3.16068 93 106 135 
-0.586085 0.846744 3.12731 104 119 155 
-0.567904 0.862517 3.14401 131 137 166 
0.528224 0.83703 2.61649 57 63 91 
-0.790369 -1.17451 3.58525 74 66 94 
0.0703892 -1.16768 3.57447 85 43 61 
-1.02247 -1.13241 3.50434 70 62 77 
1.58762 -1.45277 4.50024 84 71 91 
-0.526062 -1.18637 3.684 69 55 69 
-1.08358 -1.10716 3.47747 124 101 121 
-0.565213 -1.17161 3.6791 57 42 58 
1.28086 -1.3314 4.3686 144 126 144 
-0.280385 -1.04934 3.52244 38 23 29 
-0.128801 -1.0217 3.46598 96 51 71 
-0.000556629 -1.03192 3.51878 68 32 46 
-0.0290355 -1.02163 3.50694 68 35 45 
-0.0794119 -1.00601 3.49481 115 72 87 
-1.04528 -0.999619 3.49692 50 38 56 
-0.0730252 -0.991753 3.49206 120 74 91 
-1.04246 -0.956111 3.48767 65 56 72 
-0.0703402 -0.95203 3.51521 74 37 47 
-1.0459 -0.931373 3.48871 52 43 64 
1.49507 -1.1848 4.44332 85 71 96 
-0.974868 -0.92543 3.5167 123 105 123 
-1.44486 -0.870646 3.33446 104 86 114 
-1.51599 -0.854217 3.30589 124 110 135 
-1.4994 -0.849921 3.30853 126 108 133 
1.30033 -1.10636 4.35528 134 120 139 
-1.26607 -0.858864 3.40381 71 56 73 
-1.36607 -0.847025 3.37021 124 103 124 
-1.03704 -0.871186 3.48078 118 95 112 
-1.07063 -0.867163 3.48777 78 53 66 
-0.977895 -0.865394 3.51635 55 45 61 
0.0620157 -0.894129 3.64679 87 51 65 
-0.162141 -0.856984 3.51261 111 65 76 
1.43058 -1.0754 4.41756 67 51 72 
0.240723 -0.886422 3.71286 79 42 52 
1.20244 -1.00137 4.34263 135 112 125 
-0.885308 -0.812543 3.54006 86 73 91 
1.26208 -0.993567 4.35911 85 62 75 
0.111847 -0.818242 3.66156 91 55 70 
1.43877 -0.97131 4.41859 84 64 87 
0.118771 -0.769442 3.67111 63 28 34 
0.071837 -0.757777 3.64262 82 45 59 
0.172425 -0.749264 3.68506 123 73 84 
0.320065 -0.753049 3.73972 68 37 47 
0.298665 -0.741474 3.7251 73 38 48 
0.0256698 -0.718116 3.62033 71 37 51 
-0.80428 -0.705894 3.57779 122 105 121 
0.0224899 -0.712503 3.63317 64 32 43 
1.27805 -0.854286 4.36059 150 123 138 
1.0489 -0.818746 4.27642 132 126 156 
1.02553 -0.811531 4.25951 95 83 108 
0.250484 -0.69412 3.70848 100 65 75 
1.60394 -0.835481 4.49102 96 74 90 
-1.45786 -0.58123 3.33798 124 112 134 
-1.43497 -0.580767 3.33374 118 97 119 
0.277153 -0.64749 3.70708 115 73 83 
-1.05031 -0.596917 3.49475 107 83 97 
-1.43425 -0.566396 3.33916 122 101 127 
-0.395853 -0.602605 3.56347 63 28 32 
-0.336994 -0.602999 3.58724 59 25 38 
-0.799094 -0.592847 3.5699 133 109 126 
-0.86474 -0.585631 3.56165 62 48 65 
-0.384244 -0.584065 3.57543 69 30 40 
-0.909733 -0.566233 3.52449 78 63 86 
1.06536 -0.662643 4.26538 131 115 135 
1.43474 -0.673081 4.40716 72 53 65 
-0.948702 -0.488548 3.51603 101 82 107 
-1.44214 -0.448042 3.32987 53 53 77 
-1.18969 -0.461655 3.43354 95 85 103 
0.155133 -0.491188 3.66853 198 183 160 
-1.0494 -0.449003 3.48197 137 122 138 
0.0620455 -0.463858 3.64344 174 154 141 
1.31865 -0.554724 4.36552 80 60 79 
-0.996206 -0.440796 3.49376 74 52 65 
-0.13784 -0.448147 3.54381 78 40 49 
0.0521871 -0.453238 3.64361 176 159 141 
1.14856 -0.533678 4.30331 141 117 141 
1.17176 -0.532257 4.30319 122 103 123 
1.41827 -0.538689 4.39356 68 51 65 
0.0422444 -0.437034 3.63582 183 168 151 
0.358726 -0.442955 3.72102 123 88 101 
-0.179625 -0.419311 3.54858 60 25 34 
0.0355721 -0.421277 3.6246 161 141 130 
-0.445825 -0.40654 3.55294 80 40 47 
0.0322912 -0.4031 3.62207 163 147 132 
-0.283898 -0.397638 3.61298 62 30 36 
-0.44586 -0.384403 3.55329 74 39 52 
-0.135528 -0.38668 3.56764 88 48 66 
-1.04963 -0.367469 3.48302 65 50 56 
-1.06072 -0.354727 3.47817 77 61 76 
0.0716276 -0.367566 3.62845 162 147 116 
-1.20561 -0.331049 3.42637 64 51 64 
-0.429736 -0.339548 3.55264 84 39 46 
-0.506199 -0.330699 3.52729 66 30 41 
-0.371845 -0.33151 3.58153 88 44 53 
0.710135 -0.368891 3.97888 91 51 68 
-0.449143 -0.317926 3.55414 71 42 55 
0.614715 -0.334716 3.9197 97 49 62 
-0.061924 -0.297523 3.59237 73 32 40 
-1.39649 -0.270817 3.34349 59 48 59 
0.712693 -0.316204 3.99328 73 37 48 
0.726992 -0.297622 3.97291 60 29 38 
-1.3893 -0.198279 3.3409 56 54 69 
1.69146 -0.261877 4.48812 138 122 142 
0.599555 -0.226538 3.93628 90 48 59 
-0.0522743 -0.200377 3.59843 78 44 56 
0.571394 -0.196571 3.91368 81 37 46 
-0.402827 -0.173758 3.51421 86 43 51 
0.594227 -0.192479 3.90138 100 47 56 
0.607186 -0.188599 3.89424 146 94 110 
-0.0522788 -0.170816 3.59889 61 20 28 
1.52402 -0.209991 4.42514 86 67 87 
1.48385 -0.205489 4.4125 101 78 99 
-0.55231 -0.153783 3.51763 86 38 43 
-0.299488 -0.147808 3.60554 62 25 32 
0.15858 -0.126729 3.52423 146 140 140 
0.751632 -0.139174 3.98994 100 46 57 
-1.12304 -0.110284 3.42974 124 89 95 
0.18052 -0.0879975 3.51831 131 125 127 
0.121238 -0.0692248 3.54765 80 54 42 
1.69309 -0.0872229 4.49276 63 42 57 
1.88832 -0.0884355 4.56314 110 90 117 
1.90278 -0.0883467 4.55834 140 152 187 
-0.766662 -0.058776 3.39928 92 47 57 
0.0798903 -0.0532298 3.55844 67 54 45 
1.48506 -0.0668311 4.41627 78 57 80 
0.141192 -0.0435372 3.5669 41 27 25 
0.122068 -0.0400839 3.57213 37 28 33 
0.435114 -0.0320435 3.77278 145 93 105 
-0.0845071 -0.0278119 3.59032 66 33 40 
0.429456 -0.0257543 3.78282 78 39 46 
-0.735252 -0.00691823 3.34026 109 62 81 
0.773323 0.0245148 4.00944 64 27 34 
-0.138021 0.0235741 3.55141 66 22 35 
-0.115898 0.0333715 3.56044 142 90 103 
0.894491 0.0459331 4.05057 88 43 53 
-1.35284 0.0441698 3.34813 109 101 120 
-1.39617 0.0479465 3.33621 135 120 136 
-1.50735 0.0495527 3.29003 42 47 69 
0.984632 0.0627154 3.97218 135 89 99 
-1.57027 0.0549255 3.27278 39 28 54 
0.110958 0.0615063 3.63036 66 31 36 
-1.59593 0.0574961 3.25892 21 30 52 
-1.55744 0.0578628 3.26445 148 140 203 
-1.51021 0.0587102 3.28979 143 160 223 
-1.47737 0.0653485 3.30256 33 32 53 
-1.59232 0.069859 3.26961 16 22 52 
-1.11864 0.079834 3.44513 35 26 33 
-1.57954 0.0788067 3.26147 162 170 233 
-1.49753 0.0805401 3.30106 172 191 255 
-1.1772 0.0957099 3.41667 97 78 94 
-1.57681 0.0939498 3.26189 34 55 117 
1.68553 0.143049 4.46234 144 132 146 
0.969156 0.139646 3.90985 109 49 58 
-1.35041 0.127159 3.35715 71 52 66 
0.955904 0.188317 3.88472 80 38 44 
-1.49622 0.162867 3.29178 30 30 80 
-1.57695 0.164922 3.26225 24 46 96 
-0.236124 0.180002 3.4409 97 42 45 
-1.48763 0.175261 3.29245 121 137 196 
-1.5742 0.177065 3.26263 162 172 237 
-1.49623 0.17818 3.29177 164 184 248 
-1.4776 0.187899 3.2965 18 20 33 
0.22589 0.199332 3.53334 142 158 207 
0.849415 0.217191 3.76971 118 65 84 
0.229635 0.208004 3.54241 146 156 205 
0.570784 0.213423 3.66123 115 69 87 
0.668341 0.217109 3.70802 110 62 77 
0.384594 0.212239 3.5873 99 57 73 
-1.55497 0.200134 3.26559 144 145 201 
-1.50607 0.201816 3.28084 165 180 242 
0.791867 0.230062 3.75473 131 83 100 
-1.56155 0.202336 3.25475 19 17 29 
-0.180324 0.209581 3.38407 101 54 71 
1.74892 0.278518 4.49095 116 93 106 
0.513335 0.230009 3.65185 90 46 63 
1.59531 0.279994 4.44657 109 85 99 
-0.573792 0.207724 3.24506 89 50 57 
0.225149 0.224459 3.52185 107 61 71 
1.63939 0.284961 4.45741 107 74 91 
-1.56981 0.211189 3.25363 23 31 54 
-0.804093 0.205383 3.14991 72 41 47 
-0.760367 0.206697 3.16889 64 36 40 
0.567825 0.240642 3.6635 79 42 59 
1.05068 0.254066 3.85978 145 100 121 
-0.346855 0.22099 3.31329 118 68 82 
1.11968 0.258792 3.86973 104 66 85 
-0.402415 0.222585 3.3036 94 49 56 
-0.108192 0.231818 3.41768 139 87 100 
-0.691013 0.21957 3.19172 86 54 55 
-0.636975 0.220172 3.20957 105 66 80 
1.04033 0.263071 3.84727 58 35 43 
-0.642608 0.225715 3.20883 134 89 102 
-0.284341 0.237885 3.35139 91 47 59 
0.2784 0.253097 3.55322 105 63 80 
-0.463624 0.235723 3.27302 91 54 69 
-0.64824 0.234088 3.20813 82 48 62 
-0.00654814 0.252091 3.45547 104 60 77 
-0.785415 0.23919 3.15488 116 105 122 
-1.45466 0.253325 3.30531 94 64 74 
-0.666055 0.245614 3.19631 115 74 72 
-0.583716 0.248469 3.23514 81 52 60 
-1.16529 0.269271 3.42712 39 33 37 
1.12686 0.307097 3.87046 88 43 58 
0.931272 0.30546 3.79867 113 64 77 
0.841895 0.304724 3.76654 96 48 60 
0.873902 0.305937 3.77278 106 52 66 
0.594758 0.301423 3.66673 125 72 85 
0.746173 0.305524 3.72945 104 62 82 
0.285351 0.301771 3.56003 87 44 59 
0.732528 0.316259 3.72849 100 63 81 
-0.286603 0.298646 3.34226 106 54 65 
-0.491611 0.295463 3.26259 113 61 69 
-0.462141 0.29933 3.28337 94 45 63 
-0.114046 0.310438 3.40916 114 67 85 
-0.757866 0.295101 3.17051 88 46 56 
-0.40259 0.311108 3.30462 110 59 77 
0.109709 0.330506 3.48689 107 55 67 
-1.2633 0.350775 3.37527 53 42 62 
-1.28941 0.365473 3.37196 58 47 61 
-1.42576 0.494423 3.3071 60 54 66 
-1.47452 0.49418 3.28961 73 64 83 
-0.654896 0.578968 3.1839 83 63 67 
-1.09496 0.676836 3.42902 37 25 32 
-1.10569 0.6814 3.42414 40 32 40 
0.306008 0.550394 2.65392 61 32 42 
0.690849 0.587213 2.8077 72 41 60 
0.876992 0.601952 2.87853 97 45 57 
-0.672875 0.677332 3.18746 33 22 22 
0.451618 0.596214 2.70912 89 45 60 
0.495008 0.640885 2.73287 93 48 63 
-1.45901 0.847544 3.21544 68 52 62 
-0.545541 0.85363 3.16502 81 99 130 
-0.609283 0.852564 3.14054 73 81 109 
-0.560095 0.85138 3.10309 131 137 166 
0.104613 0.74346 2.5307 108 76 91 
0.531538 0.835936 2.62118 48 45 82 
-0.744084 -1.17644 3.60881 137 112 131 
1.50281 -1.43995 4.43701 64 50 73 
-0.566064 -1.16802 3.67196 48 34 50 
-0.594925 -1.15119 3.65349 128 104 125 
-0.894393 -1.09098 3.53917 129 101 117 
1.31445 -1.33772 4.37025 102 81 106 
1.27623 -1.32886 4.35263 145 124 143 
-1.37668 -1.00933 3.36862 80 62 77 
-1.09853 -1.02059 3.46981 64 55 72 
-0.0314701 -1.01787 3.496 68 34 41 
-0.0767822 -1.00126 3.4903 123 84 101 
-1.04898 -0.98588 3.48016 142 124 145 
-0.901307 -1.00678 3.55156 128 106 124 
0.369976 -1.01404 3.64587 54 28 37 
-0.0697312 -0.951634 3.51729 72 36 47 
0.448822 -0.973535 3.67747 132 83 102 
-0.974902 -0.922749 3.51234 123 102 121 
-1.49789 -0.850488 3.30671 126 107 134 
-1.37942 -0.861295 3.37604 104 84 108 
-1.3646 -0.844926 3.36642 129 109 128 
-1.07279 -0.866286 3.48457 70 48 61 
-0.978492 -0.865501 3.51184 62 54 70 
-0.734598 -0.856574 3.60282 114 93 112 
-0.873803 -0.828349 3.55037 70 56 80 
-0.888049 -0.811935 3.54592 74 58 80 
0.122009 -0.829522 3.66911 70 39 51 
0.710298 -0.852461 3.88829 61 33 47 
-1.30042 -0.724452 3.39931 135 113 135 
0.109682 -0.770166 3.65519 78 37 51 
0.117702 -0.767366 3.65841 63 28 34 
0.186326 -0.752394 3.68374 83 45 52 
0.232317 -0.751352 3.71759 67 36 44 
-0.823836 -0.715644 3.56775 80 54 65 
0.318739 -0.751964 3.73976 56 30 41 
-0.681176 -0.724493 3.63089 62 49 59 
0.301471 -0.744558 3.72662 80 50 58 
-0.802093 -0.706169 3.57399 117 98 116 
1.27225 -0.852007 4.34079 147 119 134 
1.12549 -0.826891 4.28306 75 58 77 
0.966622 -0.814631 4.23688 94 75 97 
1.01806 -0.810176 4.24107 88 76 99 
1.04602 -0.814463 4.2614 133 126 157 
1.55268 -0.810795 4.44392 82 55 75 
-0.336126 -0.605546 3.59873 53 26 36 
-0.853541 -0.58566 3.54706 69 52 68 
-0.728792 -0.5811 3.59485 127 117 139 
-0.910206 -0.566587 3.52874 77 59 84 
1.18741 -0.691142 4.30612 85 64 84 
0.117768 -0.557122 3.65943 193 185 157 
0.0504333 -0.536032 3.66024 105 89 74 
1.62931 -0.648139 4.45665 132 114 136 
-1.44186 -0.44777 3.32784 53 53 77 
-1.05061 -0.44977 3.48808 137 122 138 
0.0741314 -0.472008 3.65606 174 155 141 
1.32197 -0.554362 4.36592 76 62 80 
-1.53745 -0.415816 3.30893 33 35 50 
-0.996778 -0.439196 3.49801 71 49 59 
-0.139312 -0.447758 3.54866 69 36 44 
1.14122 -0.531729 4.29035 144 121 147 
1.41173 -0.537063 4.38055 68 51 68 
0.0422182 -0.43772 3.63369 173 156 141 
0.0898942 -0.427995 3.6531 154 136 117 
0.0342076 -0.419725 3.61835 147 128 120 
0.0343177 -0.402524 3.62905 177 161 144 
-0.285582 -0.393798 3.60138 55 27 36 
-0.447685 -0.385157 3.55763 73 42 53 
-0.758526 -0.345806 3.25561 73 33 37 
-0.424748 -0.377978 3.55902 96 51 60 
1.86865 -0.438914 4.54653 109 81 104 
-0.508703 -0.332219 3.52702 93 46 57 
-0.449905 -0.33071 3.54495 62 30 38 
-0.528064 -0.31553 3.50353 90 47 54 
1.44243 -0.396761 4.40216 68 54 69 
0.347289 -0.3178 3.7423 92 49 68 
-0.0631718 -0.296347 3.58991 54 23 28 
0.709546 -0.318232 3.97972 97 56 66 
0.718481 -0.310323 3.98144 124 78 92 
-1.39059 -0.238679 3.3439 55 56 78 
-0.419253 -0.246325 3.54566 144 88 101 
-1.39071 -0.199313 3.34429 56 54 69 
-0.486265 -0.210298 3.53084 75 40 47 
1.68513 -0.261286 4.47776 131 115 139 
1.65923 -0.255574 4.46024 150 131 150 
-0.181214 -0.172575 3.54354 69 29 45 
0.604506 -0.189301 3.88599 142 89 105 
0.779114 -0.190925 4.00531 69 31 42 
-0.300279 -0.147269 3.59172 63 23 32 
-0.533389 -0.13608 3.51425 68 27 29 
0.133241 -0.0865941 3.54397 52 38 31 
1.52952 -0.0905002 4.42044 64 44 57 
0.895102 -0.0792486 4.03985 69 25 34 
1.8808 -0.0881963 4.55286 111 88 114 
1.91196 -0.0884672 4.56846 147 160 193 
1.71369 -0.0775459 4.47668 134 119 138 
1.69286 -0.0676322 4.48569 133 115 139 
-0.000972533 -0.0426447 3.59053 105 88 98 
-0.0864492 -0.0271711 3.59066 62 32 41 
-0.781359 -0.00938262 3.32371 113 70 87 
-0.736884 -0.00574924 3.33402 97 59 82 
-0.357418 0.00504431 3.58048 76 28 36 
0.990601 0.00489236 3.98456 155 116 137 
1.71006 0.0107584 4.48003 71 53 69 
-0.568902 0.0115721 3.49922 79 37 49 
-0.450405 0.0122452 3.55003 79 45 55 
0.998862 0.0133454 3.966 80 43 61 
1.87256 0.0161057 4.53311 94 65 87 
-0.357432 0.0165662 3.58066 64 33 41 
0.990236 0.0233658 3.96593 144 98 114 
-1.33373 0.0271002 3.37461 61 48 65 
-0.633033 0.0278003 3.47705 78 42 58 
-0.116762 0.0308665 3.56752 141 89 102 
1.00411 0.0349114 3.96983 62 32 47 
-0.12792 0.0403214 3.555 63 30 36 
0.383993 0.0422536 3.74545 64 30 37 
-1.49735 0.0414259 3.29275 39 42 62 
-1.57537 0.044576 3.26982 50 40 64 
-1.35153 0.0448858 3.3464 114 106 123 
-1.39715 0.0481778 3.3343 140 121 134 
-0.180661 0.0512614 3.53337 108 59 78 
-1.50233 0.0521848 3.2803 35 43 66 
-1.55969 0.0590012 3.27406 153 153 217 
-1.15786 0.0690323 3.41592 104 82 94 
-1.48553 0.073039 3.3062 19 22 43 
-1.11671 0.080502 3.43721 35 26 33 
-1.57748 0.0803133 3.25959 163 172 237 
-1.49935 0.0802963 3.30513 172 191 255 
-0.0201307 0.0983406 3.53961 146 91 110 
0.987768 0.107507 3.93902 171 123 137 
1.41131 0.118573 4.35127 128 109 122 
-1.57976 0.0969446 3.27173 13 31 80 
-0.0354039 0.104265 3.53792 119 66 76 
-1.37495 0.114764 3.35945 102 91 108 
-1.3249 0.119436 3.37077 60 46 63 
-1.53638 0.119408 3.27732 171 190 255 
-1.35306 0.126289 3.3592 80 64 78 
-1.54647 0.13021 3.27615 24 27 54 
-1.52541 0.129809 3.27664 22 38 89 
-1.53491 0.139966 3.28187 170 189 255 
-1.57435 0.161855 3.26045 14 32 71 
-1.49766 0.162656 3.2936 26 29 76 
-1.4958 0.176685 3.28169 168 187 253 
-1.4831 0.185024 3.30083 28 26 41 
0.173937 0.206675 3.51364 144 158 203 
0.229012 0.21251 3.54235 144 149 195 
-1.5546 0.200316 3.26354 144 145 201 
-1.5115 0.200955 3.29286 165 180 242 
-1.56457 0.203723 3.26225 17 15 28 
-1.50359 0.208701 3.28323 24 26 44 
-1.57119 0.210821 3.26134 20 24 45 
0.170662 0.226578 3.52457 99 56 65 
-1.49437 0.215993 3.2943 20 25 45 
0.675222 0.241998 3.69809 97 58 74 
1.043 0.251732 3.84431 145 102 122 
-0.407173 0.222736 3.29385 76 37 44 
-0.69307 0.220885 3.19861 74 42 44 
-0.819477 0.219872 3.13933 62 44 50 
-0.642816 0.2273 3.2071 130 88 96 
-0.286337 0.236405 3.33943 92 55 69 
-0.578861 0.233813 3.23739 68 38 44 
-0.649563 0.233938 3.2062 88 55 68 
1.10511 0.285117 3.85787 96 50 64 
-0.658477 0.242996 3.2156 132 90 100 
0.823335 0.28175 3.75312 102 53 74 
0.548676 0.282071 3.65474 88 49 62 
0.342072 0.28823 3.56244 106 57 70 
-0.0195718 0.281328 3.44744 86 47 60 
0.565374 0.302694 3.66048 80 43 55 
-0.233656 0.285772 3.36114 101 54 65 
-0.583878 0.282609 3.2263 104 51 57 
-0.000931204 0.301218 3.45744 81 46 63 
-0.287476 0.300435 3.35233 97 48 60 
0.665906 0.331194 3.69095 77 41 48 
-0.462477 0.298249 3.28133 110 58 73 
-0.575566 0.2976 3.23849 81 38 48 
-0.48895 0.300131 3.26855 73 33 37 
-0.115347 0.31217 3.41152 109 64 82 
-0.403767 0.309305 3.29503 109 65 83 
0.108482 0.33019 3.48724 90 44 62 
-0.180217 0.328528 3.38167 100 49 64 
-1.28752 0.364785 3.36845 62 50 64 
-0.487885 0.366256 3.19206 114 76 89 
-1.23025 0.41062 3.39158 64 45 59 
-1.42684 0.495936 3.31092 58 51 61 
0.310193 0.476097 2.66103 94 48 52 
-1.09493 0.675884 3.42715 37 25 32 
-1.10449 0.679765 3.42194 46 36 46 
0.679633 0.597307 2.79488 100 61 79 
0.72839 0.652236 2.80792 107 54 71 
0.672031 0.650379 2.78842 113 61 82 
0.490479 0.637115 2.71869 83 42 58 
0.500704 0.644751 2.72632 137 96 115 
0.629889 0.658974 2.7756 101 66 90 
-0.861642 0.743279 3.07088 143 99 117 
0.259155 0.644739 2.63994 98 63 80 
0.34051 0.652848 2.67307 142 104 124 
0.318435 0.655206 2.65785 148 110 128 
-0.548318 0.853879 3.16121 99 121 153 
0.53011 0.837041 2.62352 52 47 75 
