ply
format ascii 1.0           { ascii/binary, format version number }
comment made by Greg Turk  { comments keyword specified, like all lines }
comment this file is a cube
element vertex 1281
property float x
property float y
property float z
property uchar red
property uchar green
property uchar blue
end_header
-1.97211 0.212998 4.28931 31 54 122 
-1.9078 0.237058 4.32315 65 51 72 
-1.9165 0.237211 4.30754 38 43 88 
1.7112 0.300623 5.02176 81 126 221 
-1.9307 0.259406 4.30432 39 53 128 
-2.03782 0.262632 4.28031 128 126 171 
-2.0472 0.264638 4.28695 54 43 77 
-1.92387 0.268073 4.29955 134 163 226 
-1.92969 0.269789 4.30562 155 177 245 
-1.92085 0.271446 4.31366 44 46 89 
-2.06211 0.281269 4.28567 29 33 58 
0.0437575 0.29134 4.26944 142 155 200 
1.33112 0.311213 4.5331 67 37 52 
-1.9453 0.296069 4.29868 138 157 215 
-2.00739 0.297127 4.29153 121 110 159 
-1.94844 0.306214 4.30556 28 28 51 
-1.11908 0.293577 4.04327 78 42 51 
0.470692 0.321162 4.35441 92 45 63 
2.22936 0.385666 5.13372 131 105 113 
1.2753 0.34646 4.52736 97 56 76 
0.906926 0.34205 4.44283 90 51 72 
0.552645 0.339867 4.37854 93 49 68 
0.190748 0.339006 4.30455 98 50 72 
-0.891741 0.332203 4.08242 91 49 64 
-1.15627 0.333017 4.02994 115 107 121 
0.678702 0.408482 4.39341 96 46 60 
-0.171043 0.404264 4.22435 95 47 62 
-0.755271 0.403134 4.11261 90 46 64 
-0.891168 0.401584 4.08659 88 39 50 
-1.84558 0.638596 4.3202 43 32 49 
2.12907 0.851806 5.0984 99 102 119 
2.38317 0.98575 5.04559 43 31 68 
2.37322 0.995845 5.05946 157 186 242 
2.36761 1.00293 5.06707 70 82 157 
2.26455 1.00231 5.01773 67 49 132 
2.32262 1.0624 5.04123 49 30 117 
2.36931 1.10296 5.05116 23 58 133 
2.3872 1.1066 5.05801 161 179 235 
2.2754 1.10558 5.02168 70 66 153 
2.26467 1.11408 5.02611 138 154 202 
-0.866437 1.0468 3.97276 91 102 122 
-0.878466 1.0474 3.96839 118 135 163 
0.00599058 1.02418 3.17816 139 153 177 
0.364805 1.02525 3.13345 178 199 253 
2.14267 -1.8212 5.19918 140 120 135 
1.52013 -1.66631 5.08283 95 73 102 
-0.740187 -1.44548 4.62339 98 84 101 
1.52769 -1.55872 5.07858 113 93 116 
-1.0712 -1.38621 4.56056 58 48 74 
1.59661 -1.542 5.08002 97 73 102 
-0.961074 -1.38231 4.57447 107 80 95 
-1.5991 -1.30624 4.4515 59 43 60 
-1.01698 -1.33087 4.57543 98 70 92 
-1.44495 -1.3006 4.48341 79 53 73 
1.84363 -1.48162 5.14061 103 77 104 
-0.86847 -1.30026 4.60009 70 45 68 
-1.35851 -1.25688 4.49409 92 80 98 
-1.46589 -1.23733 4.48792 52 42 65 
0.307176 -1.15658 4.42035 66 37 57 
1.49183 -1.31397 5.06926 124 116 133 
0.328067 -1.14086 4.41717 93 44 65 
-1.21968 -1.16181 4.5232 68 54 84 
0.590335 -1.17286 4.60516 57 34 47 
1.60971 -1.30038 5.10049 126 110 123 
0.338766 -1.11747 4.43147 147 97 115 
-1.72466 -1.10946 4.4062 128 103 125 
1.74095 -1.25663 5.11472 127 105 122 
-1.38289 -1.0979 4.48459 59 46 71 
-1.37332 -1.09633 4.4789 104 77 94 
1.61759 -1.24649 5.09044 90 71 92 
-0.0836272 -0.997188 4.45274 90 43 55 
1.37745 -1.10093 5.02986 95 66 90 
1.75018 -1.10423 5.10921 70 51 79 
-1.66996 -0.933614 4.42348 124 118 143 
-1.29809 -0.942549 4.49459 54 44 65 
1.23274 -1.04868 5.00183 99 75 101 
-1.77854 -0.919986 4.39724 115 95 114 
1.03655 -1.035 4.96838 117 87 112 
-1.23996 -0.929904 4.51074 124 110 131 
0.0171314 -0.922886 4.47641 84 42 56 
-1.01584 -0.921091 4.55216 117 103 124 
-1.17353 -0.904382 4.51918 66 48 73 
-1.19611 -0.879585 4.51558 116 103 123 
0.937151 -0.923682 4.93417 120 100 120 
-0.145285 -0.829432 4.44257 71 30 44 
2.04681 -0.960327 5.15684 99 81 108 
0.984974 -0.92345 4.96977 98 76 104 
1.5314 -0.919453 5.05434 86 72 103 
1.62876 -0.917527 5.07009 92 74 101 
1.44246 -0.911169 5.04302 76 57 83 
1.12971 -0.894535 4.97907 93 78 104 
-1.62689 -0.78472 4.42153 109 79 99 
2.34019 -0.913095 5.20589 96 81 104 
-1.21971 -0.788477 4.50827 61 44 60 
-1.09168 -0.762839 4.53811 123 105 119 
1.43369 -0.817597 5.02772 95 70 91 
-1.10025 -0.67773 4.53256 75 53 75 
-0.542926 -0.65627 4.47171 65 32 43 
-0.0256372 -0.605988 4.46233 144 132 109 
0.00732029 -0.603556 4.45402 174 161 136 
0.0208926 -0.60093 4.45387 153 133 119 
0.0519314 -0.523759 4.45844 201 186 161 
-1.87462 -0.483185 4.35372 116 109 130 
-0.0661992 -0.490677 4.44821 146 123 116 
0.0460002 -0.484363 4.44843 216 205 183 
-0.252686 -0.473029 4.39488 67 32 44 
-0.0758622 -0.47919 4.44744 180 160 145 
0.396718 -0.467308 4.52147 68 28 33 
-0.0334144 -0.43746 4.46167 185 169 144 
-0.100686 -0.42568 4.43325 163 144 129 
0.439752 -0.429505 4.53948 63 28 39 
-0.100678 -0.417915 4.43293 182 167 148 
-0.100649 -0.403355 4.43232 181 168 149 
0.0797932 -0.402452 4.50044 162 141 118 
1.54188 -0.434845 5.05984 106 89 102 
-0.0640573 -0.355035 4.43413 158 141 115 
0.116731 -0.355042 4.49123 216 209 181 
-0.0948917 -0.347909 4.43292 108 76 61 
-1.42842 -0.34801 4.44961 71 57 77 
-1.39957 -0.345855 4.45642 78 55 77 
-0.0892766 -0.341016 4.44111 151 133 113 
-0.753878 -0.331494 4.42005 79 37 46 
0.00528661 -0.320966 4.38406 172 154 130 
0.0224414 -0.321156 4.38391 184 167 147 
0.117968 -0.321324 4.46407 198 187 165 
0.0588504 -0.299993 4.39863 156 140 115 
0.0801534 -0.301041 4.41312 121 101 90 
-0.351254 -0.29715 4.38442 68 31 41 
-0.22314 -0.296922 4.41484 75 33 43 
0.0880093 -0.289544 4.42197 107 79 68 
0.293647 -0.289565 4.50885 68 28 39 
0.32732 -0.289245 4.51353 94 48 59 
0.387764 -0.289064 4.53181 80 34 45 
0.391655 -0.28907 4.53123 62 26 39 
-1.92858 -0.245522 4.34277 117 100 117 
-0.311931 -0.216026 4.39432 67 26 34 
2.08002 -0.251928 5.13354 124 111 129 
0.050095 -0.211391 4.47131 126 104 83 
0.337403 -0.209621 4.51723 76 30 40 
1.60568 -0.234139 5.04597 99 76 95 
1.8507 -0.198592 5.09223 72 54 74 
1.86978 -0.198869 5.09593 55 39 65 
0.610022 -0.18064 4.67975 82 35 47 
0.880082 -0.170577 4.74233 81 39 53 
-0.365985 -0.150539 4.37796 69 25 40 
0.694333 -0.15196 4.61791 128 81 96 
0.442023 -0.141888 4.5427 70 22 35 
-0.249627 -0.136323 4.40755 64 26 37 
0.0333948 -0.129708 4.32408 187 184 167 
0.697551 -0.138138 4.62594 92 40 58 
0.093501 -0.124039 4.32108 167 162 158 
0.0841866 -0.118971 4.32526 126 115 121 
-1.73874 -0.110484 4.36867 93 73 96 
0.0386801 -0.0707362 4.28524 76 59 49 
-0.984014 -0.0607815 4.36632 71 26 32 
0.0368062 -0.0532574 4.28448 62 51 59 
0.0423945 -0.0532872 4.28434 44 34 45 
1.67015 -0.0594089 5.0551 79 62 83 
-0.00796662 -0.0394573 4.316 135 119 94 
1.60183 -0.045586 5.04763 136 128 144 
2.10986 -0.0393878 5.11924 133 122 139 
0.230014 -0.0167437 4.41688 186 182 166 
-0.0649628 -0.00774861 4.36215 71 55 65 
0.237844 -0.00154289 4.41963 195 191 182 
-0.318903 0.00183289 4.38476 76 33 43 
0.644745 0.00825535 4.68073 123 74 82 
0.65388 0.0163991 4.68785 68 27 38 
1.59681 0.0224146 5.0318 74 55 73 
1.58883 0.0651205 5.03423 87 72 97 
1.19656 0.0658375 4.68949 64 45 59 
0.388899 0.0820658 4.52231 77 26 35 
-0.311124 0.081104 4.38258 66 23 33 
-1.93457 0.108736 4.30959 60 49 69 
1.1165 0.126247 4.67022 130 83 93 
-1.9539 0.124018 4.31918 52 54 74 
-2.01627 0.128709 4.29599 63 46 89 
-2.04762 0.148868 4.29514 52 60 108 
-1.91561 0.153095 4.30911 16 32 85 
-2.03531 0.167148 4.29283 78 89 149 
-1.93175 0.167848 4.31169 52 69 144 
-0.411507 0.170039 4.31592 153 100 116 
1.7105 0.212144 5.04439 67 55 79 
2.07289 0.221577 5.11038 131 119 136 
1.09592 0.202054 4.60088 154 105 121 
2.06829 0.22987 5.13759 140 119 136 
-1.98165 0.208522 4.29789 170 184 241 
-1.75176 0.21192 4.36303 73 51 74 
-1.98892 0.214271 4.29742 38 28 88 
-1.98154 0.218136 4.29761 162 182 243 
1.06863 0.238422 4.56975 125 64 83 
1.07254 0.244215 4.57792 151 106 119 
-0.221089 0.231438 4.29899 122 63 83 
-1.90621 0.236852 4.31738 75 61 78 
-1.93161 0.259201 4.30717 39 53 128 
-2.03901 0.260515 4.28479 131 133 172 
-1.92159 0.265523 4.30984 92 108 159 
-2.04632 0.265249 4.28458 35 31 60 
-1.93149 0.268846 4.30686 154 176 244 
-2.02959 0.268605 4.2768 143 141 201 
-0.222471 0.269911 4.28956 99 51 65 
-2.06051 0.280442 4.28303 33 38 59 
0.0684378 0.285234 4.2844 82 79 119 
1.3276 0.310425 4.52444 60 31 45 
-2.00695 0.296551 4.29189 143 139 194 
-1.94802 0.296743 4.30613 138 157 215 
1.03914 0.308823 4.46853 75 40 58 
-2.01571 0.299588 4.29476 26 20 48 
0.319871 0.303218 4.33348 99 54 74 
1.12186 0.326222 4.48852 61 31 45 
1.19072 0.3266 4.49793 76 35 46 
0.825696 0.323088 4.42855 112 59 77 
0.406427 0.321755 4.35227 89 50 65 
0.111402 0.320685 4.28864 83 44 61 
2.23396 0.386602 5.14347 131 105 113 
1.13608 0.341227 4.49072 64 33 44 
-0.67723 0.31545 4.12781 82 39 48 
-0.971579 0.312819 4.07496 68 40 54 
0.906035 0.34187 4.44476 80 45 66 
1.71989 0.390929 5.04616 83 59 86 
0.553922 0.340548 4.38109 93 49 68 
0.898827 0.347134 4.43781 132 96 116 
0.190493 0.338957 4.30588 89 46 66 
-0.169918 0.336499 4.23476 104 56 76 
-1.15528 0.332188 4.02956 108 101 117 
1.13672 0.417819 4.48553 111 68 88 
0.548746 0.408054 4.37024 87 46 58 
0.190363 0.407359 4.30286 89 44 58 
0.686283 0.448185 4.41137 95 49 68 
-1.84747 0.63861 4.32463 49 38 52 
-1.64536 0.645968 4.37748 58 42 56 
1.8115 0.849112 5.03843 66 52 78 
2.0251 0.875157 5.08507 98 69 93 
4.02475 1.28342 7.39353 141 148 166 
1.8439 0.97112 4.9547 101 82 107 
2.36702 0.993638 5.04544 157 186 242 
2.38285 0.993607 5.05118 164 175 235 
2.23984 0.992871 5.02606 28 32 59 
2.24425 1.00009 5.02608 89 132 198 
2.2635 1.00222 5.01547 67 49 132 
2.39337 1.01115 5.05017 76 65 146 
2.39759 1.01019 5.04989 37 31 106 
2.21625 1.00849 5.02202 69 49 72 
2.3975 1.01735 5.04965 153 160 223 
2.22803 1.01486 5.02402 30 36 79 
0.669191 0.697501 3.38401 84 49 66 
2.31812 1.05484 5.04891 178 193 254 
2.22807 1.08162 5.02901 52 33 61 
2.37423 1.10586 5.06082 23 58 133 
2.38773 1.11301 5.04284 49 32 71 
2.24744 1.11461 5.01848 20 37 67 
0.254886 0.754003 3.29838 105 56 77 
0.74266 0.813119 3.39691 70 42 59 
-0.877868 1.04837 3.97088 118 135 163 
-0.208761 0.888285 3.15096 114 77 99 
-1.6786 1.01188 3.23692 99 112 112 
1.53135 -1.69385 5.08639 107 83 107 
1.52208 -1.66943 5.09082 96 72 102 
-0.746637 -1.4604 4.63127 76 63 85 
1.65403 -1.60659 5.11286 87 72 100 
-1.07123 -1.38692 4.56226 58 48 74 
0.949285 -1.51002 4.97069 110 80 98 
1.55837 -1.53571 5.07063 111 84 108 
1.0555 -1.48746 4.98239 87 65 94 
1.41117 -1.50117 5.06468 104 82 105 
-1.57801 -1.31909 4.46042 131 125 141 
-1.4857 -1.29814 4.46316 87 63 85 
-1.01696 -1.33116 4.57515 98 70 92 
-1.44499 -1.29947 4.48093 74 49 66 
-0.942759 -1.32908 4.58606 109 75 96 
1.84521 -1.48268 5.14762 107 78 107 
0.96776 -1.41366 4.97236 97 69 83 
-1.35796 -1.25574 4.49514 92 80 97 
1.81107 -1.42717 5.12686 106 75 97 
-1.43697 -1.23004 4.48535 119 90 112 
-1.17007 -1.23334 4.53928 79 57 69 
-0.148674 -1.17229 4.31903 103 63 83 
-1.45438 -1.2133 4.47394 131 114 133 
-0.173408 -1.16097 4.31687 87 42 59 
0.629335 -1.23361 4.60344 88 56 72 
-0.202586 -1.14938 4.31413 68 35 46 
1.01851 -1.30431 4.96682 102 78 100 
0.34947 -1.15329 4.43517 99 51 65 
0.414658 -1.15233 4.43944 151 95 108 
0.372431 -1.14204 4.43329 67 35 46 
1.60857 -1.30141 5.10395 125 101 118 
1.74158 -1.30669 5.12708 86 72 95 
-2.12803 -1.09262 4.3203 69 61 88 
-1.78955 -1.108 4.4083 84 61 82 
1.73581 -1.25495 5.11006 127 109 129 
1.6183 -1.24771 5.09269 90 71 92 
-1.38631 -1.0572 4.48814 77 60 78 
-1.2159 -1.03638 4.50731 102 71 93 
-1.38607 -1.02408 4.48743 60 46 63 
-0.0837362 -0.999084 4.45951 92 48 59 
-0.0674766 -0.997333 4.45993 67 36 47 
0.15255 -0.992101 4.49795 81 38 47 
-2.13339 -0.947824 4.31744 93 87 100 
-1.95794 -0.92612 4.35309 124 115 143 
-1.72184 -0.935036 4.40568 80 58 89 
-1.37679 -0.949024 4.4722 116 99 113 
-1.41197 -0.946193 4.48011 81 60 72 
-1.30059 -0.944692 4.49946 54 48 68 
0.0163608 -0.924375 4.47816 86 48 61 
-1.20546 -0.92611 4.52111 102 85 105 
-1.17495 -0.90456 4.5219 62 50 75 
-1.19478 -0.878281 4.51631 131 119 139 
-0.145927 -0.830532 4.43936 72 33 46 
2.04266 -0.959343 5.15086 93 73 100 
1.01307 -0.916589 4.96557 97 65 88 
0.233177 -0.826011 4.51407 72 37 51 
1.10233 -0.907741 4.97079 129 114 133 
1.63107 -0.918573 5.0745 92 74 101 
-0.605694 -0.802941 4.44711 68 34 49 
1.1316 -0.896569 4.98552 91 77 103 
-1.45985 -0.799149 4.45497 119 94 111 
-1.63198 -0.788146 4.42991 107 75 95 
-0.686871 -0.738393 4.34436 79 46 57 
1.43387 -0.818199 5.03296 103 78 97 
1.13004 -0.778981 4.97862 87 71 88 
-0.54306 -0.654033 4.46668 65 32 43 
2.08514 -0.743414 5.16286 72 59 77 
-0.598497 -0.628578 4.46268 71 32 43 
-1.08425 -0.631369 4.53685 134 107 124 
-1.53919 -0.614774 4.43577 46 34 45 
0.0023051 -0.603478 4.45404 176 162 139 
0.0208885 -0.601503 4.45389 153 133 119 
-0.0769236 -0.577737 4.46499 89 75 64 
-0.0396287 -0.504626 4.46444 161 141 130 
-0.0651107 -0.490386 4.45322 166 153 137 
-0.0765693 -0.47991 4.44413 176 154 140 
-0.252389 -0.472092 4.39652 67 32 44 
0.39633 -0.467308 4.52153 68 28 33 
-0.101784 -0.425488 4.43101 165 146 132 
-0.101835 -0.404507 4.43342 180 167 148 
0.079848 -0.401512 4.50325 162 141 118 
0.70821 -0.409958 4.71287 92 45 56 
-0.0648143 -0.356024 4.43251 158 141 115 
0.115307 -0.358768 4.51213 221 213 184 
-1.42216 -0.347928 4.46764 71 54 77 
-0.0902443 -0.340804 4.43113 146 125 106 
-0.677501 -0.331193 4.43077 69 29 39 
0.657842 -0.347284 4.68694 107 57 74 
0.0227583 -0.32203 4.37262 193 181 159 
-1.38515 -0.323251 4.44609 66 54 74 
0.0365205 -0.311573 4.38168 186 174 152 
-0.294275 -0.305938 4.40488 79 36 43 
0.60966 -0.323883 4.67381 113 61 74 
0.707511 -0.323566 4.70824 95 45 58 
0.781273 -0.322906 4.72343 64 33 44 
0.0573454 -0.298389 4.40022 164 148 122 
0.0297204 -0.294056 4.39081 123 96 69 
0.790563 -0.312916 4.72003 109 69 78 
0.0781628 -0.287849 4.40902 182 166 143 
0.294492 -0.290005 4.51579 68 28 39 
-1.80896 -0.250175 4.36039 65 50 61 
2.07807 -0.264828 5.13205 129 113 136 
-1.80548 -0.217074 4.36289 70 60 84 
-0.312268 -0.217781 4.39923 89 40 46 
-1.59165 -0.211624 4.40118 54 43 66 
0.337014 -0.209815 4.51728 89 39 49 
0.384488 -0.20924 4.52116 104 48 57 
1.52406 -0.233233 5.03587 108 82 103 
0.607806 -0.182805 4.67837 95 43 55 
1.85139 -0.198981 5.09049 67 50 69 
1.86856 -0.199231 5.09382 54 38 62 
-0.632688 -0.158108 4.37654 131 82 94 
0.87891 -0.171277 4.7449 73 35 49 
-0.365766 -0.151542 4.37991 69 25 40 
0.680304 -0.150017 4.62355 145 100 112 
0.281691 -0.14333 4.49969 80 30 42 
0.03143 -0.131178 4.31248 183 177 161 
0.0946516 -0.131041 4.32209 202 195 189 
0.698122 -0.138247 4.62972 98 45 65 
0.688814 -0.135827 4.63211 143 92 107 
0.600392 -0.135198 4.67766 87 38 47 
0.0650735 -0.114813 4.30515 202 199 194 
-1.73933 -0.110826 4.37395 90 66 90 
0.0826501 -0.0956666 4.28477 213 209 206 
0.0356219 -0.0720491 4.27604 84 62 48 
-0.984417 -0.0595562 4.36642 71 26 32 
0.090404 -0.0566253 4.44627 73 59 72 
1.69091 -0.0580971 5.04752 101 78 100 
-2.15119 -0.0459272 4.28949 70 64 87 
1.61158 -0.0527058 5.03832 80 58 79 
1.0208 -0.0465504 4.76 91 38 46 
-0.00909014 -0.0401799 4.3128 118 102 79 
1.84043 -0.0431846 5.08951 92 70 94 
-0.0638748 -0.0304084 4.3657 119 110 115 
1.8075 -0.0352775 5.07164 87 64 85 
1.99515 -0.0303862 5.10483 116 84 103 
0.232406 -0.00932902 4.41126 153 139 136 
0.227634 -0.00417915 4.40808 113 90 96 
-0.254195 -0.000151249 4.38682 85 36 48 
-0.310998 0.00123552 4.38087 74 32 39 
-2.10986 0.0043415 4.28278 78 68 93 
0.334678 0.00442376 4.51779 60 22 33 
0.645003 0.00724596 4.68263 124 74 85 
0.655991 0.0145762 4.69131 104 53 62 
1.5986 0.0233491 5.03882 67 47 66 
-0.175054 0.0266692 4.41158 73 32 48 
-1.05542 0.0501118 4.23965 100 57 78 
1.58342 0.0652942 5.02402 87 69 94 
2.1186 0.0687263 5.12635 64 45 72 
0.862603 0.0758011 4.72343 95 48 58 
-1.05306 0.0764865 4.23014 67 33 39 
-0.311474 0.0796813 4.38734 95 44 51 
0.389738 0.0817757 4.52753 86 28 40 
-1.76163 0.113171 4.34994 105 95 114 
-2.0302 0.115748 4.29861 35 30 52 
1.12066 0.126081 4.67909 137 89 101 
-1.81301 0.118896 4.34257 139 120 132 
-2.02059 0.128941 4.29725 41 30 66 
-2.01371 0.131331 4.30652 155 156 215 
-1.95117 0.132217 4.31228 147 170 230 
-1.7306 0.135682 4.35755 61 48 65 
-2.04725 0.145699 4.29662 17 31 66 
-1.91994 0.152263 4.32307 19 23 59 
1.09666 0.199397 4.60903 132 84 99 
-1.74154 0.190329 4.36784 55 38 54 
-1.7512 0.209884 4.35789 70 47 68 
-0.222263 0.230518 4.2998 127 68 88 
1.89828 0.271616 5.07371 112 77 92 
-0.228647 0.24136 4.29325 112 57 76 
-2.03927 0.258986 4.28446 132 135 174 
-2.03297 0.257872 4.28546 49 71 128 
-2.04587 0.264679 4.28435 54 43 77 
-1.92554 0.266583 4.31024 111 130 189 
1.27047 0.308181 4.52559 115 64 80 
-1.94522 0.294712 4.29906 156 178 236 
-2.00832 0.296947 4.29484 143 139 194 
0.908903 0.308348 4.45504 97 48 70 
-2.01792 0.298932 4.29623 19 18 39 
0.0423016 0.298194 4.27855 151 156 200 
-1.94509 0.303946 4.29875 35 35 59 
0.0423002 0.302593 4.27837 143 148 188 
-1.18176 0.293137 4.02905 81 50 61 
-1.11986 0.293644 4.03325 67 37 42 
0.824974 0.32256 4.42882 129 75 94 
0.468169 0.319584 4.35614 124 73 93 
0.403747 0.321034 4.34781 81 44 58 
0.111903 0.319392 4.29342 86 43 60 
0.818384 0.329651 4.43068 149 102 117 
1.12847 0.333606 4.48686 95 67 74 
0.764889 0.33066 4.41551 103 71 82 
-0.317897 0.316292 4.19969 102 53 68 
0.410414 0.327721 4.34634 113 80 94 
0.809898 0.335944 4.42222 128 74 89 
-0.971263 0.310667 4.06317 107 65 79 
0.0489868 0.326782 4.27714 125 84 94 
0.775349 0.338184 4.4226 95 55 68 
0.904257 0.340224 4.44364 80 44 61 
1.04195 0.341297 4.46726 109 64 74 
-1.19797 0.309428 4.0199 76 51 63 
-1.03662 0.31171 4.05346 57 30 33 
0.456949 0.33553 4.35753 95 51 69 
0.679227 0.338267 4.39795 115 69 81 
0.322287 0.334412 4.32031 115 72 86 
1.72005 0.390752 5.04795 93 70 96 
1.73144 0.392118 5.05042 85 66 94 
-0.671763 0.323127 4.13826 127 78 85 
0.897766 0.346483 4.43449 132 96 116 
-0.976606 0.319777 4.0677 123 85 98 
0.190871 0.338404 4.3059 97 49 71 
-0.17041 0.334936 4.23783 97 50 67 
-0.986605 0.326055 4.06513 99 58 71 
-0.758916 0.33248 4.11895 86 53 69 
-0.893054 0.331089 4.08373 84 44 55 
-0.897118 0.337314 4.073 106 75 83 
-1.88217 0.360037 4.32945 93 67 82 
-0.902834 0.34512 4.07987 87 53 66 
0.937866 0.412103 4.44906 118 62 74 
0.774642 0.414296 4.4186 104 67 86 
-0.743102 0.38922 4.11483 76 41 59 
0.188504 0.407185 4.30306 84 42 55 
-0.0379664 0.405752 4.26594 103 54 68 
1.12294 0.429787 4.48348 97 63 78 
0.761425 0.426159 4.4222 97 63 81 
0.403298 0.422274 4.343 112 74 96 
-0.89083 0.39998 4.07357 75 34 43 
1.05187 0.449734 4.47974 84 44 60 
0.332274 0.444557 4.33322 112 63 75 
2.01356 0.532759 5.09064 102 75 97 
-0.75577 0.439399 4.1254 110 56 70 
2.23336 0.825378 5.12553 91 66 86 
1.97752 0.861044 5.06627 106 101 122 
4.0251 1.28597 7.41659 122 136 154 
2.2226 0.986156 5.0166 72 47 65 
2.38598 0.99398 5.05771 135 146 207 
2.24602 0.99477 5.03989 40 39 58 
2.24612 1.00111 5.02826 113 157 219 
2.41205 1.0067 5.05704 34 40 61 
2.26504 1.00182 5.01784 96 85 156 
2.39024 1.00894 5.04447 76 65 146 
2.22666 1.01275 5.02586 23 25 58 
2.31692 1.04411 5.03967 36 43 131 
0.178177 0.693807 3.28598 94 52 71 
2.412 1.08763 5.05135 57 33 83 
0.533148 0.72837 3.35042 116 67 88 
2.21073 1.09004 5.01947 66 42 59 
2.37958 1.10291 5.04969 161 188 246 
2.38976 1.11289 5.04896 63 40 91 
0.176411 0.727608 3.28494 97 47 61 
2.25599 1.11202 5.021 68 98 146 
0.042281 0.725882 3.25416 105 60 74 
2.67001 1.14315 5.12666 59 75 84 
0.00829497 0.728717 3.25091 66 31 46 
0.254835 0.753243 3.3013 99 52 72 
0.742452 0.812456 3.39597 70 42 59 
0.0389515 0.782174 3.25791 107 57 72 
0.479238 0.811298 3.34032 112 59 81 
0.731144 0.824009 3.39284 98 60 78 
-0.0103392 0.802895 3.24401 97 52 69 
-0.926437 1.04648 3.9701 80 82 118 
-0.868647 1.04849 3.98114 72 88 111 
-0.958751 1.05097 3.92411 72 78 97 
-0.209065 0.88677 3.15089 133 88 112 
1.09797 -1.66978 4.99584 147 130 156 
1.5492 -1.67111 5.08042 79 62 88 
1.52524 -1.67038 5.09597 98 70 98 
1.83895 -1.6808 5.1526 72 60 82 
1.84237 -1.67479 5.15313 63 45 72 
1.65765 -1.60963 5.12073 90 77 106 
0.973115 -1.55514 4.96525 111 81 104 
1.39942 -1.58025 5.06801 85 66 93 
0.900898 -1.52635 4.96135 98 67 89 
-0.729553 -1.41292 4.62435 64 55 74 
0.949262 -1.5092 4.97057 110 80 98 
0.864896 -1.48911 4.93315 68 54 77 
0.865441 -1.48338 4.95397 119 105 120 
-1.62664 -1.3047 4.44102 76 71 92 
1.30613 -1.48081 5.03858 132 119 139 
-1.44915 -1.30201 4.48494 73 55 71 
-0.943697 -1.32821 4.58163 114 86 102 
1.62051 -1.46146 5.09466 97 80 101 
1.04459 -1.426 4.97992 96 70 83 
-1.15782 -1.28995 4.54321 97 70 95 
1.05915 -1.41248 4.98978 105 80 99 
1.29939 -1.41335 5.03693 101 77 99 
-1.35895 -1.25604 4.50264 83 72 89 
-0.170896 -1.16489 4.33198 73 34 49 
-1.20568 -1.21566 4.54123 132 109 121 
-2.13068 -1.15126 4.33516 129 122 143 
-0.245766 -1.14309 4.31384 132 85 103 
-0.272604 -1.12943 4.31034 119 75 88 
0.408371 -1.15084 4.43661 157 104 124 
1.49208 -1.31584 5.07009 120 111 128 
0.329852 -1.14276 4.42673 81 27 48 
-1.23962 -1.15868 4.52002 69 53 76 
0.587097 -1.17117 4.59608 53 34 49 
2.31479 -1.32431 5.2289 150 124 144 
-2.12853 -1.09165 4.31925 67 64 89 
-1.45103 -1.12896 4.48262 67 52 74 
-1.78957 -1.10839 4.4107 84 61 82 
0.341317 -1.10493 4.43156 70 32 44 
-1.8834 -1.08239 4.37204 90 80 108 
-1.38465 -1.10164 4.49465 57 42 66 
-1.31936 -1.10286 4.50266 44 26 49 
-1.10266 -1.08654 4.53886 75 52 64 
-1.28634 -1.07354 4.50503 76 58 75 
-1.2159 -1.03676 4.51571 96 63 82 
-1.38638 -1.02475 4.4912 60 46 63 
1.4316 -1.13341 5.03602 129 106 119 
-0.083728 -1.00022 4.45747 92 48 59 
-0.0670112 -0.998022 4.45789 69 36 47 
-1.30189 -0.996174 4.4909 63 46 61 
1.49901 -1.12067 5.05066 128 109 124 
1.33325 -1.10976 5.03383 111 76 97 
1.38323 -1.10991 5.04361 69 44 64 
1.71225 -1.11253 5.10186 72 61 86 
-1.88867 -0.942935 4.37146 107 96 121 
-1.72804 -0.93878 4.41558 69 52 80 
-1.67282 -0.934768 4.4231 121 113 142 
-1.29911 -0.942667 4.49101 50 42 64 
0.0168338 -0.924649 4.48259 84 42 56 
0.0759292 -0.920766 4.49147 92 45 56 
-1.20157 -0.92305 4.51517 112 95 112 
-1.0167 -0.924489 4.56071 116 101 121 
-0.147197 -0.82881 4.4352 63 27 39 
1.22821 -0.931835 5.00393 143 129 154 
0.0758563 -0.827169 4.4873 122 75 83 
1.17697 -0.912284 4.98597 124 117 138 
1.10526 -0.907809 4.97231 140 126 143 
1.73597 -0.929958 5.09642 128 112 123 
-0.108632 -0.795156 4.4477 75 36 52 
0.129505 -0.803719 4.49665 115 74 84 
-0.114187 -0.783968 4.44696 68 35 46 
2.34158 -0.915464 5.21569 93 77 99 
0.175353 -0.767889 4.51732 106 62 69 
-1.09017 -0.761833 4.53407 121 100 115 
0.20907 -0.713324 4.51246 113 72 81 
1.12681 -0.776496 4.97124 86 70 88 
-1.09968 -0.678713 4.5263 78 55 74 
-0.611678 -0.650008 4.43986 71 36 43 
-0.542872 -0.654263 4.46846 58 26 37 
-0.598577 -0.628457 4.46667 71 32 43 
-1.86126 -0.608587 4.36476 123 100 121 
0.0306402 -0.609954 4.45417 68 32 35 
-0.0251166 -0.606175 4.454 144 123 106 
-1.86123 -0.591673 4.36479 121 97 120 
0.00275912 -0.60394 4.45405 176 162 139 
-0.0757578 -0.579976 4.47786 89 75 64 
0.0307214 -0.563131 4.46419 111 85 62 
-1.89362 -0.542951 4.34498 101 79 106 
-1.47616 -0.546397 4.43957 104 74 86 
1.24456 -0.60233 4.99406 132 122 144 
0.053039 -0.524692 4.46215 201 186 163 
1.41022 -0.584841 5.0272 114 101 119 
-0.0392711 -0.506592 4.47358 161 141 130 
-0.840969 -0.488027 4.38881 69 37 52 
-0.0641639 -0.492401 4.45234 148 122 114 
-0.315596 -0.474424 4.38181 74 36 46 
-0.253546 -0.473361 4.4003 72 36 49 
-1.87116 -0.454601 4.3624 67 68 94 
0.330651 -0.470715 4.51382 70 33 47 
-0.365291 -0.439178 4.38545 53 22 35 
-0.832923 -0.436083 4.38978 91 42 50 
-0.248616 -0.427233 4.41066 80 38 49 
-1.98162 -0.416463 4.3468 37 34 53 
0.282564 -0.432383 4.51345 65 24 37 
-0.675437 -0.418302 4.43873 74 38 43 
-0.621851 -0.417702 4.45289 75 39 47 
0.0790581 -0.414055 4.51176 221 206 177 
-1.10053 -0.368595 4.12551 101 44 54 
-1.1077 -0.361727 4.13291 135 79 89 
-0.842878 -0.381459 4.3842 74 38 51 
1.83987 -0.442252 5.1013 78 59 75 
-0.00279259 -0.369307 4.38262 161 143 128 
0.653899 -0.387463 4.7043 82 49 64 
-1.45823 -0.364904 4.45248 129 116 138 
-0.0665944 -0.356294 4.42811 160 142 116 
0.115513 -0.35773 4.50172 221 213 184 
-0.089135 -0.340998 4.44591 151 133 113 
0.00816074 -0.335484 4.3714 183 167 151 
0.0273887 -0.33285 4.38109 191 178 163 
-0.753639 -0.331348 4.42451 79 37 46 
0.0163872 -0.327298 4.37484 162 141 124 
-0.621419 -0.330859 4.44976 70 35 50 
-0.582089 -0.331149 4.44724 65 31 38 
-0.57544 -0.320038 4.4606 117 67 76 
-0.294152 -0.304854 4.38922 88 42 51 
0.612769 -0.325241 4.68266 101 51 64 
0.783617 -0.323869 4.72271 79 44 56 
0.0660409 -0.298798 4.39801 205 195 170 
-0.354916 -0.296346 4.39298 56 25 39 
-0.259301 -0.296863 4.40431 68 34 39 
-0.253817 -0.296961 4.40485 68 31 38 
0.0301131 -0.293195 4.38099 123 96 69 
0.648558 -0.306866 4.68702 79 47 64 
0.293618 -0.290545 4.50963 78 33 44 
0.333725 -0.290057 4.51734 79 44 51 
0.391803 -0.288937 4.53478 62 26 39 
0.0522562 -0.277548 4.39747 148 129 99 
-1.81388 -0.251449 4.36891 61 48 58 
1.83036 -0.266984 5.10147 100 69 85 
-0.312979 -0.215664 4.38346 82 38 45 
-1.5934 -0.211793 4.40986 52 40 61 
2.07339 -0.247151 5.14168 89 62 82 
0.671892 -0.222479 4.68602 92 44 61 
2.05967 -0.243924 5.13958 142 130 140 
0.384781 -0.210556 4.51904 104 48 57 
0.646019 -0.218062 4.6687 138 91 104 
1.61346 -0.236598 5.0624 90 70 88 
0.336231 -0.208453 4.5131 76 30 40 
0.648715 -0.200491 4.66707 108 55 73 
1.8735 -0.200649 5.10585 68 52 72 
0.608942 -0.181506 4.67582 82 35 47 
1.22173 -0.178408 4.70161 62 31 41 
-0.367087 -0.150435 4.37386 71 28 43 
-0.207498 -0.148871 4.41657 63 25 35 
-0.641534 -0.144343 4.37769 81 39 54 
0.281953 -0.143223 4.50387 80 30 42 
0.0811575 -0.128996 4.32414 212 205 195 
0.697571 -0.138296 4.62286 94 43 60 
0.059372 -0.123911 4.31522 143 132 126 
0.399525 -0.13067 4.52584 72 34 47 
0.600097 -0.134648 4.67536 86 37 47 
0.0645975 -0.115647 4.30334 202 199 194 
-0.499658 -0.11679 4.45697 69 31 39 
-0.488731 -0.116923 4.45913 60 23 30 
0.0805151 -0.0835868 4.29008 192 188 187 
0.0374408 -0.072553 4.27978 86 67 50 
-1.41983 -0.0611538 4.43686 111 88 100 
-0.986946 -0.0599447 4.37764 71 26 32 
1.59949 -0.0646218 5.03835 132 118 139 
0.0642108 -0.052864 4.27805 30 21 42 
1.69479 -0.0594273 5.05911 107 85 102 
0.0375293 -0.0488515 4.29 144 134 132 
-8.17584e-05 -0.0462039 4.31311 59 47 35 
1.61217 -0.0529366 5.03852 80 58 79 
-0.00818883 -0.0395162 4.31278 127 111 88 
0.110355 -0.0391803 4.3017 179 172 164 
1.59913 -0.0456884 5.04716 124 113 132 
2.108 -0.0418029 5.11622 121 110 127 
2.13381 -0.0415919 5.16318 145 130 149 
0.124677 -0.0323134 4.33121 135 126 119 
1.59465 -0.036775 5.033 122 108 127 
0.394203 -0.0270683 4.52996 102 61 79 
2.00257 -0.0287205 5.11699 108 77 95 
2.08076 -0.0260957 5.12805 154 139 164 
-0.0626786 -0.0100007 4.34553 81 66 63 
-0.354014 0.000740904 4.38127 85 39 48 
0.224034 0.00049742 4.41867 172 165 157 
-0.0821451 0.00353396 4.36768 65 48 41 
-2.1122 0.00571957 4.29117 73 64 85 
-0.00553241 0.00583289 4.34518 41 32 35 
0.645315 0.0070095 4.6849 124 74 85 
-0.61329 0.0115208 4.45102 74 33 40 
1.59778 0.0219617 5.03293 74 55 73 
-1.05335 0.0508986 4.23663 106 60 80 
1.58661 0.0637512 5.03747 101 82 105 
0.603376 0.0612965 4.67814 94 42 54 
-0.580625 0.0616389 4.45696 64 35 42 
1.14083 0.0654524 4.68373 92 44 63 
-0.898661 0.0625032 4.37481 106 56 61 
0.934478 0.0778883 4.75302 88 39 50 
-1.11991 0.0751038 4.22748 78 42 53 
-0.310291 0.0798336 4.3836 92 41 48 
-0.259143 0.080038 4.40073 91 33 45 
0.38743 0.0820441 4.51715 99 41 53 
1.13654 0.0905005 4.66609 87 41 54 
-1.72395 0.0958176 4.35572 52 45 58 
1.2203 0.124617 4.68481 88 51 67 
-2.02877 0.115925 4.29651 35 30 52 
1.12029 0.126111 4.67147 144 96 109 
-1.81381 0.119788 4.34881 138 121 134 
-2.05723 0.129734 4.29408 52 56 78 
-2.02093 0.128339 4.29705 35 28 61 
-2.0103 0.129759 4.29725 112 99 147 
-1.95562 0.131896 4.3252 137 165 226 
-2.04683 0.144908 4.29489 23 41 78 
-1.92043 0.15141 4.3252 17 23 54 
1.72779 0.179382 5.04441 142 126 139 
-1.93092 0.156524 4.3123 172 193 255 
-2.03858 0.169054 4.30589 56 62 130 
-1.93264 0.169168 4.31017 43 66 142 
-1.78472 0.196845 4.37089 101 91 108 
-1.98742 0.212333 4.28847 29 27 67 
-1.97275 0.212805 4.29746 23 43 99 
-1.52886 0.22049 4.41456 49 37 52 
-1.98323 0.221082 4.29681 172 185 253 
1.07003 0.237976 4.58149 120 59 78 
-0.22865 0.242664 4.29313 105 53 71 
-1.92888 0.255708 4.2956 25 38 108 
-2.04327 0.258116 4.29294 133 136 176 
1.06641 0.274682 4.56603 84 47 54 
-1.92748 0.26577 4.32258 94 108 159 
-2.04508 0.265558 4.27981 52 43 74 
-2.02947 0.268411 4.28079 148 151 215 
-1.93255 0.270505 4.30972 154 176 244 
1.27087 0.30805 4.52028 95 46 64 
1.33275 0.310658 4.53824 86 46 63 
-1.94552 0.295945 4.29669 161 181 240 
0.907643 0.306347 4.44658 116 62 82 
1.03955 0.308656 4.475 100 55 66 
-2.01369 0.297424 4.28146 15 17 31 
0.673847 0.304768 4.39279 96 53 68 
-0.0295033 0.299211 4.26475 121 68 84 
-1.94274 0.304262 4.29645 25 27 47 
0.0426996 0.302753 4.27454 143 148 188 
-0.529309 0.296865 4.16282 119 68 84 
1.35091 0.32541 4.54197 118 69 81 
-0.758702 0.29575 4.10624 92 49 57 
-1.17979 0.292951 4.02504 81 50 61 
-1.12087 0.293336 4.03993 68 36 42 
-0.890993 0.297177 4.08787 70 35 52 
1.11924 0.324772 4.47987 61 31 45 
1.1946 0.326722 4.51021 76 35 46 
0.760586 0.323376 4.41728 92 48 61 
0.406075 0.321685 4.35335 89 50 65 
0.0428062 0.319426 4.28509 95 51 61 
0.112787 0.320267 4.29327 81 42 57 
2.13561 0.381709 5.12089 140 116 130 
-1.18517 0.302251 4.01768 119 80 89 
-0.318746 0.31603 4.20486 102 53 68 
-0.250674 0.316748 4.21133 96 51 68 
-0.610397 0.314845 4.14672 106 57 73 
1.13638 0.340681 4.49221 85 48 59 
1.26786 0.342456 4.51966 68 37 51 
-0.972027 0.311071 4.07347 101 59 72 
-0.677461 0.315205 4.12831 74 35 43 
0.05085 0.32736 4.2845 136 94 105 
0.904687 0.339922 4.44575 80 44 61 
-1.03914 0.312522 4.06668 57 30 33 
-0.310886 0.323841 4.20543 131 82 94 
0.419419 0.335073 4.35038 91 49 64 
0.55023 0.337231 4.37242 80 45 62 
1.73052 0.39162 5.05235 81 61 89 
0.188291 0.336907 4.29848 83 49 65 
0.899476 0.347365 4.43379 135 101 120 
1.15952 0.353349 4.51658 145 101 117 
1.25663 0.355994 4.50983 105 65 84 
1.8442 0.399909 5.07788 128 113 136 
-0.662497 0.328098 4.13178 101 47 58 
-1.02268 0.324997 4.05173 70 44 45 
-0.98583 0.32642 4.06715 99 58 71 
0.896777 0.355473 4.44791 112 66 90 
-0.758264 0.332563 4.1178 86 53 69 
-1.11839 0.328524 4.0401 67 46 59 
-0.896969 0.337701 4.08001 107 77 90 
-1.88078 0.359314 4.32106 82 62 79 
-0.904018 0.344835 4.07728 80 57 69 
-1.53042 0.375753 4.41082 41 33 44 
1.32444 0.399516 4.52925 90 47 60 
0.695392 0.394396 4.40734 109 60 75 
0.612561 0.398413 4.38739 74 38 47 
1.00085 0.406127 4.46489 133 89 99 
1.30342 0.413455 4.52518 114 57 68 
1.01593 0.411812 4.46972 105 61 70 
0.680182 0.407307 4.39823 110 57 70 
0.935204 0.4105 4.43204 118 62 74 
1.13943 0.416924 4.49315 114 70 90 
0.328554 0.406715 4.33761 107 58 77 
0.188659 0.4071 4.30682 95 47 60 
-1.16932 0.382406 4.02379 62 32 34 
-0.0374889 0.405415 4.26027 103 54 68 
1.12564 0.430235 4.49423 97 63 78 
-0.894482 0.392072 4.06877 129 76 88 
0.759657 0.425613 4.41193 97 63 81 
0.405629 0.421708 4.34859 112 70 91 
-0.755038 0.402337 4.11402 108 56 73 
-0.893138 0.400977 4.08603 95 46 54 
1.04536 0.447645 4.46392 84 47 55 
2.13767 0.517305 5.12579 95 66 84 
0.682511 0.445696 4.39551 99 54 67 
0.334691 0.445531 4.34676 105 58 72 
1.86215 0.530913 5.08346 70 54 81 
-0.757292 0.437128 4.11251 99 46 61 
-1.61141 0.538546 4.36817 60 49 65 
-1.85386 0.639587 4.31484 39 36 52 
-1.75585 0.655437 4.3464 54 46 62 
1.97672 0.797622 5.0751 108 86 107 
2.23621 0.825418 5.13085 105 78 95 
2.13449 0.853339 5.10272 105 107 125 
1.81676 0.850544 5.05454 74 52 78 
1.8893 0.854808 5.06232 105 101 123 
1.97118 0.866395 5.09368 122 106 125 
2.02623 0.875291 5.08771 98 69 93 
-1.45864 0.856946 4.39414 35 29 42 
2.3892 0.987008 5.05339 53 39 60 
1.84896 0.971988 4.96249 98 80 106 
2.23136 0.989663 5.03284 59 38 56 
2.38251 0.992768 5.05266 153 168 228 
2.24098 0.992842 5.0332 31 31 49 
2.35981 1.00385 5.06512 34 33 96 
2.39459 1.00768 5.05149 55 35 122 
2.23032 1.01301 5.03059 22 28 68 
0.722798 0.697151 3.39522 97 46 61 
0.670601 0.698354 3.38935 84 49 66 
2.32005 1.04291 5.04751 22 27 89 
-0.201385 0.665797 3.21273 106 53 64 
0.500979 0.693491 3.34805 74 38 56 
2.31318 1.05154 5.04635 183 198 255 
0.00391508 0.678439 3.24656 121 78 87 
0.17907 0.693508 3.28932 94 52 71 
0.0100299 0.687817 3.25234 73 36 44 
2.42743 1.0965 5.06043 44 47 57 
2.21511 1.09138 5.02457 55 31 50 
0.532071 0.728192 3.34574 110 66 85 
2.37871 1.10138 5.04458 167 190 251 
0.501804 0.733561 3.35345 81 44 61 
2.40756 1.11821 5.05863 17 22 45 
2.25612 1.11593 5.0389 20 36 71 
2.26717 1.11329 5.02845 151 173 228 
0.230933 0.731369 3.29438 100 57 74 
0.00795604 0.728715 3.25093 66 31 46 
0.00389115 0.736685 3.25092 110 81 100 
-1.52217 0.984139 4.30859 83 79 92 
0.541946 0.79368 3.35506 102 54 70 
0.0406845 0.782875 3.25996 96 50 63 
0.55287 0.808913 3.3576 113 61 79 
0.55722 0.817847 3.3585 106 54 77 
0.061044 0.798901 3.25775 86 42 55 
-0.197108 0.799114 3.20845 94 48 67 
-0.0689908 0.816849 3.23221 91 59 80 
-0.878352 1.04485 3.96121 102 125 159 
-0.954154 1.04499 3.90587 72 78 97 
-0.209295 0.886684 3.15001 125 83 107 
1.84316 -1.67226 5.13547 55 48 69 
1.92642 -1.67328 5.1518 65 53 74 
1.4144 -1.64191 5.06477 106 87 108 
1.03839 -1.55351 4.97711 97 72 93 
-1.07122 -1.3868 4.5649 58 48 74 
0.944612 -1.50566 4.95598 120 90 106 
1.59182 -1.54392 5.08458 99 73 100 
-0.961925 -1.38522 4.58364 103 73 88 
1.1248 -1.50233 4.99551 111 87 112 
0.863792 -1.4862 4.96236 120 110 127 
1.30664 -1.48691 5.04547 127 103 125 
-1.64603 -1.28738 4.4228 121 100 110 
-1.01491 -1.3308 4.57407 97 68 87 
-1.31897 -1.30859 4.52074 78 55 74 
-1.07066 -1.30724 4.5625 92 80 110 
0.922571 -1.41217 4.95759 116 88 104 
0.964552 -1.41121 4.96279 101 71 83 
-1.43289 -1.22471 4.47328 125 97 119 
-1.24266 -1.21249 4.51471 140 119 139 
-0.235671 -1.16509 4.3356 85 41 58 
-1.20068 -1.21127 4.52266 130 107 118 
-0.327212 -1.15053 4.29828 83 41 55 
-2.05644 -1.14347 4.34204 141 129 146 
-0.272702 -1.12688 4.30362 112 73 86 
0.304058 -1.15541 4.41433 58 31 48 
0.297453 -1.15263 4.41493 55 31 39 
-0.303393 -1.12253 4.32693 109 71 84 
-0.232311 -1.12191 4.33433 114 72 86 
0.327033 -1.14102 4.41097 104 54 73 
-1.22181 -1.16426 4.52549 73 67 95 
2.13067 -1.3262 5.18731 112 87 118 
0.398532 -1.13015 4.4322 76 43 55 
0.582622 -1.17218 4.59719 49 34 45 
2.30949 -1.32541 5.2304 152 130 152 
0.334574 -1.11475 4.42322 151 103 119 
-1.78974 -1.10751 4.40851 84 61 82 
0.337813 -1.10143 4.42219 73 37 48 
1.74234 -1.23337 5.12267 67 55 75 
0.369648 -1.06333 4.44529 145 98 117 
-1.38581 -1.05317 4.48375 82 71 88 
1.21673 -1.14829 5.00308 115 84 103 
-1.38653 -1.02271 4.48635 69 55 75 
-2.14681 -0.970435 4.31395 98 76 96 
-0.0846812 -0.997485 4.45023 92 48 59 
1.50213 -1.1329 5.06539 89 64 83 
-2.13885 -0.954696 4.33064 100 90 107 
1.48303 -1.11037 5.05225 136 120 139 
-2.1129 -0.945721 4.31737 107 91 110 
1.74375 -1.10302 5.09312 85 70 92 
1.8541 -1.0987 5.1018 69 55 77 
-1.71352 -0.936786 4.39986 128 105 130 
-1.37714 -0.951872 4.46653 108 86 99 
-1.6542 -0.931885 4.40926 77 63 87 
-1.28792 -0.951034 4.49488 115 104 120 
-1.41319 -0.943891 4.47425 72 44 64 
-1.53161 -0.932681 4.45719 138 126 147 
1.23326 -1.04765 5.00917 98 74 98 
0.0728785 -0.916588 4.47674 100 48 59 
-1.01826 -0.923046 4.55777 113 98 118 
-1.17767 -0.905641 4.52577 66 57 81 
2.09233 -1.02456 5.16943 155 132 153 
0.0730355 -0.852505 4.48844 77 35 46 
-0.608403 -0.836781 4.44037 79 37 48 
1.22492 -0.934952 5.00584 137 123 150 
0.971803 -0.919265 4.94279 102 77 101 
2.03406 -0.956535 5.13999 97 73 94 
1.72765 -0.926451 5.07939 127 111 122 
1.44763 -0.912846 5.04791 80 68 95 
1.12984 -0.897006 4.98463 93 78 104 
-0.108214 -0.797598 4.45511 81 43 57 
0.13072 -0.805865 4.49917 123 77 87 
-1.35989 -0.771966 4.47611 128 105 126 
-0.68773 -0.736878 4.33105 95 62 71 
0.175083 -0.766911 4.50983 105 63 69 
0.654603 -0.795469 4.69237 122 88 106 
-0.147591 -0.738424 4.42891 84 40 53 
1.43672 -0.81676 5.03621 95 70 92 
-0.609662 -0.704001 4.44987 75 37 47 
0.205341 -0.71324 4.50527 99 60 69 
1.12814 -0.775207 4.97713 80 66 83 
1.43244 -0.772684 5.0346 102 79 101 
-0.0216894 -0.692997 4.55614 101 69 83 
-0.0182715 -0.682897 4.55573 117 68 77 
1.74151 -0.747446 5.08648 75 60 80 
-0.615855 -0.649831 4.44631 67 33 39 
-1.54722 -0.608398 4.43455 43 39 55 
0.0256901 -0.608978 4.46384 68 30 38 
0.21242 -0.605975 4.44089 98 63 70 
0.0223332 -0.602273 4.46357 164 148 130 
-1.21128 -0.597025 4.47366 82 64 91 
-0.0751449 -0.577342 4.47578 95 79 63 
0.0728202 -0.578335 4.47624 58 33 31 
-0.826246 -0.510195 4.39242 81 36 43 
1.4043 -0.582121 5.0151 109 96 115 
-0.651635 -0.499972 4.41685 63 27 31 
-0.0414997 -0.506561 4.47356 158 135 127 
-0.317195 -0.472532 4.38164 65 32 44 
-0.832196 -0.471414 4.3887 84 37 45 
-0.252582 -0.472553 4.4027 59 26 36 
-0.0780095 -0.476487 4.44728 184 166 150 
-1.87159 -0.455422 4.3671 59 60 86 
0.327666 -0.469604 4.51159 74 38 52 
-0.0979207 -0.44293 4.44037 154 130 122 
-0.249974 -0.426847 4.41524 63 28 37 
-0.101242 -0.423115 4.43939 167 149 133 
-0.677742 -0.416047 4.43547 54 26 31 
-0.623123 -0.416641 4.45019 83 44 52 
-0.104226 -0.40531 4.42424 143 124 110 
-1.10623 -0.360082 4.13122 134 78 90 
-0.843985 -0.381475 4.38144 76 44 59 
0.650632 -0.407934 4.68924 63 31 43 
0.869277 -0.387286 4.72857 84 48 60 
2.11644 -0.422892 5.17135 64 49 61 
-0.0778565 -0.356053 4.43734 152 132 98 
-1.42648 -0.348731 4.46301 60 43 66 
-0.755748 -0.331788 4.42381 89 45 55 
-0.622704 -0.330356 4.44697 79 40 55 
-0.583868 -0.331541 4.45653 65 31 38 
0.00542842 -0.321783 4.38015 172 154 130 
0.668468 -0.346647 4.71565 89 40 52 
-1.38654 -0.320465 4.4533 47 35 53 
-0.780796 -0.311544 4.41502 78 40 49 
0.0120058 -0.308844 4.37955 125 97 75 
0.394616 -0.319304 4.54095 101 60 79 
-0.294849 -0.306093 4.39154 93 47 57 
0.646606 -0.323174 4.68562 73 41 52 
0.0185829 -0.299156 4.37907 140 122 100 
0.044977 -0.299357 4.38566 184 167 141 
0.0647853 -0.298355 4.38742 195 183 157 
0.778737 -0.321452 4.71822 64 32 44 
-0.317724 -0.295937 4.38844 62 25 36 
-0.259565 -0.296375 4.40897 68 34 39 
0.0549439 -0.29693 4.39239 159 139 115 
0.790177 -0.31152 4.72302 107 69 77 
0.331479 -0.288363 4.51763 60 27 36 
-0.305561 -0.274387 4.40308 68 38 50 
0.63272 -0.287944 4.6871 96 63 86 
-1.81352 -0.250966 4.36154 60 48 58 
1.82659 -0.267534 5.09983 98 67 82 
-0.894655 -0.216755 4.3715 77 30 36 
-0.26269 -0.215024 4.40535 69 29 37 
-1.59129 -0.211016 4.39944 54 43 66 
2.05231 -0.245202 5.12763 143 131 146 
0.33455 -0.209009 4.5133 87 37 48 
1.51768 -0.23258 5.02866 94 69 90 
1.82818 -0.216457 5.09361 124 108 126 
0.397411 -0.186773 4.53402 76 43 55 
-0.206577 -0.178368 4.4088 88 48 69 
-1.76098 -0.170534 4.36929 107 89 108 
1.84409 -0.198348 5.07414 72 54 74 
1.86667 -0.199224 5.09416 55 39 61 
-1.80609 -0.166326 4.35933 57 58 79 
1.2165 -0.178513 4.69734 77 42 51 
-0.62363 -0.160901 4.38287 94 45 53 
0.876659 -0.174092 4.74934 72 34 49 
-0.64578 -0.147714 4.37672 93 49 63 
0.681222 -0.15299 4.63373 149 104 117 
0.0800272 -0.129578 4.32159 208 201 191 
0.0669284 -0.116217 4.31462 208 205 200 
-0.501279 -0.11755 4.46642 80 38 48 
-0.492991 -0.116425 4.48265 59 22 29 
-1.73444 -0.111257 4.36857 97 68 89 
-0.0407693 -0.111195 4.39059 193 182 165 
0.334186 -0.107867 4.50849 111 62 81 
0.835884 -0.112899 4.72062 90 40 51 
-0.785829 -0.102675 4.40587 61 23 30 
-0.582778 -0.100229 4.44804 53 25 28 
0.0801255 -0.097356 4.32705 215 211 210 
-1.49431 -0.0919726 4.42543 54 40 54 
0.0309648 -0.0832476 4.27366 137 125 111 
0.0503625 -0.0533974 4.28521 105 98 106 
0.0630445 -0.0517204 4.27142 77 68 85 
1.66167 -0.0605033 5.04126 81 59 81 
0.0374821 -0.0469708 4.28528 144 134 132 
-2.14762 -0.0449369 4.28253 70 64 87 
1.60804 -0.0530595 5.02756 80 58 79 
1.01846 -0.0459097 4.76158 101 46 52 
0.108771 -0.0392543 4.30268 188 182 168 
1.59869 -0.0451796 5.05776 138 134 150 
-0.0633703 -0.0293297 4.35609 119 113 117 
1.8049 -0.0326464 5.07119 92 64 86 
2.09259 -0.0302832 5.14136 129 109 136 
-0.295027 -0.0089416 4.39353 106 50 59 
-0.314649 0.000844019 4.3909 90 45 52 
-0.0829314 0.00456397 4.35137 65 48 41 
0.389003 0.00353074 4.51565 76 28 40 
-2.11082 0.00595829 4.28622 72 67 90 
0.643054 0.00760566 4.6855 112 64 75 
-0.61778 0.0136441 4.43523 75 32 42 
0.00208584 0.0138761 4.35166 118 106 80 
0.655512 0.0146665 4.69909 101 53 61 
0.344903 0.0217023 4.51593 60 31 43 
0.00865221 0.0236212 4.36511 101 75 60 
0.403183 0.0249034 4.52254 71 35 43 
1.82763 0.0470107 5.07081 131 114 133 
1.61931 0.0501972 5.03914 136 117 128 
1.56139 0.0642449 5.02332 114 98 126 
0.854371 0.0674772 4.72479 125 76 82 
1.13665 0.0667196 4.67378 104 61 78 
-1.6664 0.0690202 4.3881 74 58 77 
-0.889993 0.0718378 4.38069 52 17 25 
0.864036 0.0784082 4.73885 68 28 39 
-1.11782 0.0758091 4.22165 68 40 49 
-0.262015 0.0798893 4.39335 103 47 58 
0.654197 0.0909779 4.68964 91 51 70 
1.14152 0.0907653 4.67931 77 35 47 
-0.284933 0.0960587 4.39041 139 87 100 
0.843899 0.11031 4.7258 87 49 63 
-2.07311 0.10999 4.28803 83 79 102 
-1.93498 0.110298 4.31054 48 42 66 
-2.02017 0.128182 4.292 30 27 56 
-2.05446 0.131474 4.28952 29 35 62 
-1.95094 0.131968 4.31007 153 174 232 
-1.90683 0.139255 4.31282 32 31 46 
-2.04499 0.144732 4.28991 23 41 78 
1.53872 0.169696 5.01095 94 69 92 
-1.47093 0.155368 4.41498 37 28 39 
-2.03553 0.154684 4.29032 159 160 221 
-1.92912 0.155695 4.30462 173 193 255 
1.10641 0.167297 4.63537 103 52 68 
-1.54468 0.172059 4.39818 92 78 90 
2.01149 0.199981 5.10219 112 81 96 
1.70903 0.211552 5.03569 70 55 77 
2.06242 0.222107 5.1144 60 48 68 
2.07866 0.222201 5.11653 142 129 144 
-1.77967 0.195599 4.35053 98 85 99 
-1.47227 0.20972 4.42888 102 94 109 
-1.7554 0.210385 4.36323 73 53 70 
1.5988 0.242442 5.01041 107 77 106 
-1.99385 0.213075 4.29773 24 26 59 
-0.45006 0.231179 4.2666 100 48 65 
-1.91156 0.237352 4.32337 56 42 65 
-1.93389 0.252 4.30805 30 27 85 
-2.03169 0.254001 4.28899 23 41 99 
-1.93368 0.268668 4.3075 148 173 240 
-0.453075 0.26521 4.265 73 41 50 
-0.226279 0.266839 4.27902 77 39 46 
-1.91347 0.281518 4.32046 22 18 35 
0.0436994 0.292282 4.26777 132 140 186 
-2.00634 0.295543 4.28994 143 139 194 
-1.94963 0.296931 4.30707 145 162 219 
0.114778 0.295365 4.28626 147 162 209 
0.544602 0.30241 4.37552 114 66 87 
0.682346 0.305593 4.41581 115 68 83 
1.03567 0.308251 4.46551 76 42 55 
-2.01887 0.298772 4.28916 12 16 28 
0.318658 0.304468 4.34365 98 55 74 
0.114958 0.303559 4.2939 138 150 192 
0.822098 0.322769 4.41787 129 75 94 
0.470685 0.320807 4.36087 115 64 83 
0.11172 0.319477 4.2934 97 52 67 
0.816258 0.32919 4.42218 148 101 118 
-0.25184 0.317571 4.22203 96 51 68 
0.764804 0.331385 4.41289 99 68 79 
-0.320141 0.318933 4.20246 77 39 52 
0.0502932 0.327981 4.28227 135 93 102 
0.453081 0.332914 4.34917 127 80 96 
0.905199 0.3406 4.45098 74 42 58 
-1.19851 0.310689 4.02376 63 45 57 
0.324007 0.334048 4.32755 107 65 80 
0.417736 0.336554 4.35547 70 35 49 
0.547574 0.338362 4.37302 81 48 65 
1.71322 0.388315 5.02575 83 59 86 
-0.67081 0.322278 4.12554 127 78 85 
0.0567231 0.334324 4.28178 92 48 65 
0.186253 0.336304 4.30101 84 53 68 
0.995844 0.347466 4.45249 117 95 108 
-0.172715 0.333799 4.22672 92 51 69 
-0.663794 0.329498 4.13981 101 47 58 
-0.624792 0.330424 4.14933 95 50 65 
0.433766 0.346124 4.35212 140 96 110 
-1.11784 0.328066 4.03796 73 49 62 
-1.15501 0.332161 4.01955 87 77 90 
-0.896501 0.339986 4.08036 129 91 101 
-0.904976 0.345592 4.07715 81 58 71 
0.876807 0.386912 4.44271 103 58 78 
0.969592 0.398497 4.45487 90 45 52 
-1.92537 0.386764 4.30348 53 40 52 
0.617958 0.395407 4.3828 96 47 57 
1.04595 0.402689 4.46641 147 99 114 
0.337749 0.393192 4.33698 106 62 77 
1.26182 0.412087 4.50618 85 43 57 
1.04398 0.412258 4.47236 107 53 71 
1.13371 0.41353 4.48163 117 78 97 
0.585999 0.409131 4.39012 106 54 66 
0.327983 0.407783 4.33751 107 58 77 
-1.10674 0.382347 4.04184 95 54 64 
-0.904713 0.385352 4.0759 94 45 49 
-0.0395603 0.405807 4.2536 104 55 71 
1.11894 0.42717 4.47643 102 68 82 
-1.16306 0.390612 4.02635 95 66 62 
-0.498295 0.403427 4.16036 100 53 76 
0.404463 0.42436 4.35352 108 68 91 
-1.11998 0.397516 4.03467 89 49 59 
1.05013 0.45084 4.48426 71 37 52 
0.676707 0.444844 4.37938 78 40 54 
-0.0300469 0.444949 4.26534 114 60 73 
1.81792 0.527045 5.05431 89 67 88 
1.84649 0.527766 5.05974 100 86 112 
-0.399647 0.439173 4.17497 99 52 72 
-1.68286 0.486056 4.37044 63 51 65 
-1.72897 0.630978 4.33794 86 66 76 
-1.90837 0.635222 4.30148 67 61 75 
-2.1635 0.631089 4.23149 128 116 133 
2.13186 0.852704 5.09652 106 104 121 
2.13071 0.862496 5.11216 76 59 79 
1.95281 0.864154 5.06915 130 122 139 
1.97986 0.864626 5.0701 121 111 129 
0.119456 0.599318 3.27019 103 55 65 
-0.0131893 0.605496 3.24872 96 51 65 
-0.00827086 0.613024 3.25616 84 46 61 
0.0112929 0.62989 3.25441 99 48 58 
2.37917 0.983044 5.03621 60 44 67 
1.84122 0.96991 4.95343 106 88 110 
2.37117 0.989932 5.03534 159 178 236 
2.23611 0.992186 5.02947 23 24 45 
2.40164 1.00427 5.05171 23 24 62 
2.21656 1.00775 5.01089 32 25 50 
2.38546 1.02009 5.03353 183 195 255 
0.720574 0.697217 3.39272 111 57 73 
-0.00341047 0.671782 3.25372 89 42 53 
0.30539 0.687106 3.31444 103 56 64 
0.499984 0.69382 3.34975 76 46 63 
0.00880934 0.688613 3.2524 64 35 43 
2.23565 1.0808 5.01994 115 145 205 
2.3951 1.08703 5.04584 171 185 248 
2.20258 1.08583 5.00473 89 66 80 
0.532506 0.729457 3.34856 110 66 85 
2.34868 1.09487 5.02761 16 25 61 
-1.90859 0.940818 4.26552 82 74 96 
2.39043 1.11335 5.04396 38 25 62 
2.24396 1.11145 5.02164 20 30 58 
0.174193 0.729884 3.28312 74 37 51 
0.0430668 0.726392 3.2565 98 53 67 
0.746233 0.756561 3.39348 95 46 68 
0.181529 0.734665 3.282 123 80 94 
0.246769 0.747814 3.29679 112 57 71 
-0.00342949 0.743036 3.24334 94 61 78 
0.742238 0.813465 3.39853 72 46 63 
0.246637 0.79424 3.29501 85 47 64 
0.47841 0.810505 3.33991 110 58 76 
0.0602777 0.800349 3.26039 94 50 63 
-0.198633 0.799546 3.20716 103 58 78 
0.0234634 0.813918 3.25476 148 106 126 
-0.0691068 0.819176 3.23586 90 58 80 
-0.871392 1.04872 3.97858 68 84 113 
-0.943015 1.0531 3.95334 121 133 165 
1.42319 1.05467 3.91585 125 132 151 
1.81167 1.0609 3.85333 127 145 159 
0.253641 1.02625 3.16598 63 55 86 
0.262539 1.02592 3.15841 55 51 80 
1.5384 -1.69822 5.09481 93 73 96 
1.55333 -1.6719 5.08348 73 53 81 
1.5275 -1.67378 5.10444 95 73 102 
0.0511095 -1.32194 4.3952 91 52 63 
1.07288 -1.49037 5.00195 128 115 133 
1.1582 -1.49647 5.01987 92 68 96 
1.30037 -1.4807 5.02705 132 115 134 
2.01544 -1.49463 5.18766 56 47 74 
1.04246 -1.4272 4.98583 112 84 96 
1.85442 -1.46765 5.15605 82 64 94 
-1.35592 -1.25277 4.48782 92 80 97 
-2.11986 -1.18697 4.3373 82 72 91 
-0.234565 -1.16201 4.32755 81 40 57 
-0.168454 -1.16368 4.33294 62 27 39 
-2.13393 -1.15556 4.33379 136 121 140 
-0.203427 -1.15419 4.33015 73 42 50 
-0.260669 -1.13695 4.30799 70 32 43 
-0.161172 -1.14722 4.3493 142 95 113 
-0.268364 -1.12882 4.30688 122 78 93 
-0.323456 -1.12766 4.31634 135 82 100 
0.29753 -1.15105 4.40626 56 30 39 
-0.231422 -1.12607 4.34286 112 64 80 
0.406672 -1.1477 4.42647 157 104 124 
0.294701 -1.14356 4.42343 102 61 70 
1.73784 -1.3072 5.12753 75 58 77 
0.338042 -1.10165 4.41639 77 40 52 
2.11424 -1.2935 5.18913 78 66 90 
-0.253721 -1.0628 4.32183 75 42 57 
1.62989 -1.25155 5.10799 78 62 80 
1.58937 -1.24342 5.09626 105 85 105 
-1.38969 -1.08963 4.47892 142 125 147 
0.344486 -1.05806 4.44838 76 39 55 
-1.29816 -1.01624 4.49799 123 107 126 
1.44253 -1.13932 5.06472 132 109 122 
-0.0809237 -1.00054 4.46489 87 47 59 
0.432908 -0.993188 4.45003 157 103 122 
-0.0568123 -0.985374 4.46489 127 76 88 
0.153887 -0.992885 4.50363 86 43 51 
-2.11788 -0.952179 4.33294 124 104 127 
-1.37969 -0.957797 4.48581 118 92 109 
-1.94394 -0.923783 4.36331 126 110 137 
-1.30089 -0.943464 4.49291 53 46 69 
0.0762687 -0.920586 4.47971 103 52 61 
-1.17581 -0.905388 4.52609 62 50 75 
2.10586 -1.02971 5.19129 146 125 146 
-1.19274 -0.891843 4.54421 78 64 83 
-1.61726 -0.856359 4.43824 63 52 76 
0.0197294 -0.863181 4.47795 85 46 57 
-0.00447789 -0.858594 4.47774 75 37 48 
0.0681934 -0.858241 4.4772 71 30 43 
0.0886968 -0.857966 4.49421 73 37 48 
1.53166 -0.9628 5.04237 142 117 133 
-0.0527427 -0.839971 4.45871 70 37 48 
